# .PCD v.7 - Point Cloud Data file format
VERSION .7
FIELDS x y z
SIZE 4 4 4
TYPE F F F
COUNT 1 1 1
WIDTH 858
HEIGHT 1
VIEWPOINT 0 0 0 1 0 0 0
POINTS 858
DATA ascii
-3.26052477538263 -36.9957729790098 -21.0699623237753
-3.21402374083467 -36.9919339506917 -21.0334484609519
-3.13196943972824 -36.8991807219769 -21.1102199827474
-3.17023982562337 -36.9624937776131 -21.0482640759295
-3.70656600022792 -36.9678713254958 -21.6383390779449
-3.64568436487799 -36.9353565849099 -21.6169681865419
-3.56145166008813 -36.8607004928926 -21.6641555443589
-3.43491911657536 -36.7216379962541 -21.849760044273
-3.32632318167036 -36.6452812104282 -21.9299459730909
-3.13043113964698 -36.5196086026636 -22.1326161918687
-3.09322865880577 -36.5155732863512 -22.1009678132454
-2.96278277371786 -36.4571551818737 -22.2029449177917
-3.01430806307644 -36.5047951404454 -22.0511184204321
-2.88065861086634 -36.447557742078 -22.152280265799
-2.89269130697598 -36.4940062864388 -21.9547344547398
-2.74043309234692 -36.4372697063436 -22.0436821700989
-2.75046501979808 -36.484078722454 -21.8451858014141
-2.61263632326299 -36.4303987669006 -21.9476625209103
-2.66546664113483 -36.4800092440394 -21.7819125354181
-2.55454981413147 -36.428212676998 -21.9051221068401
-2.63169986321897 -36.4789902188738 -21.7574794193098
-2.51760465274726 -36.4273394982518 -21.8786724594674
-2.59588728550474 -36.4782337974635 -21.7319454325378
-2.48589707502788 -36.4268569570971 -21.8562867863871
-2.48397771289113 -36.4523500845093 -21.7445343522488
-2.25364524331025 -36.3912044943963 -21.8653056565114
-2.13127055255908 -36.3353316499427 -22.1162840862679
-1.92674991810435 -36.2973627266454 -22.3197566471107
-1.87712367281328 -36.2680616632035 -22.5706314727191
-1.97577183708594 -36.2757633904605 -22.5191900694064
-1.92626172595615 -36.2667155439574 -22.625058186396
-2.01297820841939 -36.2757629018351 -22.5456385315433
-1.96472193843327 -36.2666530372714 -22.6522959507494
-2.04732279778752 -36.275930910366 -22.5694681096918
-2.02420486605133 -36.2667873611163 -22.6933812661561
-2.13450454774379 -36.2767936481606 -22.6304694264305
-2.08838875062312 -36.2657167231819 -22.7772373021279
-2.2333664083145 -36.2811482525044 -22.7040459560695
-2.43195040269851 -36.3244151114162 -22.4395687541566
-2.59922812660438 -36.3591031831836 -22.3349924085879
-2.73514854825952 -36.3707132161825 -22.4250412243906
-2.68741041571938 -36.364804990093 -22.402381054701
-1.97857050887219 -36.2548075824001 -22.859622269812
-1.95257189038821 -36.2565684779341 -22.8028518655043
-1.90347047197992 -36.2565483721188 -22.7690446131762
-1.87848689591158 -36.2567028256563 -22.7511887335606
-1.79818588353903 -36.2933214866766 -22.3203475731036
-1.72058227544755 -36.3036910410188 -22.2071497725468
-2.60992864132289 -36.5330419084297 -21.5498387611053
-2.71264923383655 -36.5588369620932 -21.5308250075979
-2.90969252252047 -36.7290626702085 -21.2692778503624
-2.87427175959844 -36.6918771018119 -21.3145666141932
-2.80257324630127 -36.6255556484144 -21.429199802074
-2.79990650844117 -36.5966032044066 -21.5091271868564
-3.59252212480573 -37.6731835150036 -20.6200514011361
-3.66896491118868 -37.8424373468735 -20.5622587626299
-3.73014201697325 -37.8156967389972 -20.6461986228248
-3.79748647004548 -37.9031623435576 -20.6578096273057
-3.85832125711632 -37.8436703304744 -20.767331602788
-3.90846760596189 -37.9295667996531 -20.7652619234141
-3.95038674341635 -37.8675015907047 -20.8587412089241
-3.99779070323423 -37.95389843231 -20.8553740833458
-4.03728406699797 -37.8918699363387 -20.9472256640109
-4.08417098088093 -37.9790270868443 -20.9443958258385
-3.68307197952983 -38.0238047553973 -20.4667364079911
-3.7292724361871 -38.1377151200622 -20.4449768873634
-3.78250982091818 -38.0438133160987 -20.5521102464831
-3.84441560732101 -38.1282319975421 -20.5708125733615
-3.90953860529387 -38.0734774941796 -20.6744422748102
-3.95446232087248 -38.1560093398366 -20.6792385945432
-4.00079528135837 -38.0984954869153 -20.7666911175688
-4.04305632960044 -38.1814119989173 -20.7701070115342
-4.08693866535925 -38.1239720948176 -20.8559601391388
-4.12874705806364 -38.2075525834821 -20.8598471254189
-3.76326364406926 -38.3620094442636 -20.3740089043243
-3.75491772353852 -38.5518509160148 -20.2890797893913
-3.80485214107717 -38.8358906105523 -20.2453370510478
-3.7823007440139 -38.9921356602994 -20.1786307492748
-3.78962193278501 -39.1597429350453 -20.1442302846417
-3.74899175028072 -39.200208294572 -20.0947371774631
-3.74052145462036 -39.2534302165838 -20.0753279539015
-3.73873810325293 -39.2031274385503 -20.0840538551292
-3.74051891007343 -39.0375137878302 -20.1270646205164
-3.6885369357136 -39.7983862783725 -19.9485813934941
-3.7222783337358 -39.4839763904944 -20.0217950442855
-3.74167471346138 -39.3068595064574 -20.0669704997347
-3.7530352747275 -39.3574382507244 -20.0693452869251
-3.79411080672083 -39.3141187003175 -20.1186623366529
-3.82817383021646 -39.3759833110167 -20.1428799308253
-3.90630581011828 -39.3438942983637 -20.2309179177836
-3.95315651352342 -39.4112251248959 -20.2703726449498
-4.0286505977023 -39.3804312045047 -20.3581220461543
-3.5767604179302 -41.2124223486517 -19.6654316214047
-3.66961903754016 -40.4211650632079 -19.8501432454003
-3.67052692682058 -40.2301848430848 -19.8738172328441
-3.69282068186779 -40.0414561733957 -19.9188231831072
-3.67097350072337 -40.1004494027885 -19.8901085634476
-2.97451200518886 -36.7663135790978 -21.2315348032316
-2.99679217100598 -36.7670593105678 -21.2477417392705
-2.89388518755546 -36.6636703892741 -21.4107009350144
-2.83659536933663 -36.5978539707826 -21.5358435960458
-3.70409598401675 -42.3081173334605 -19.6721576871004
-3.58849346111429 -41.5339957704004 -19.6394454566643
-3.683557914682 -41.5905581615896 -19.7291261508953
-3.67341291836474 -41.8686770373449 -19.6877626654843
-3.69048940169743 -40.5532522381224 -19.8552541028565
-3.68037526373709 -40.9338188892638 -19.8005533184566
-3.71294522046419 -39.9162864011895 -19.9540323097219
-3.72411042903334 -40.0488525778538 -19.9490639603658
-3.74524964924566 -39.9239734280247 -19.9853120388109
-3.71098320183943 -40.3669728103062 -19.8979404378753
-3.71780390439933 -41.1354272768945 -19.8157706562635
-3.70390199549621 -41.4598750630457 -19.7647795165275
-3.71043651218945 -42.0237637957884 -19.7095197735938
-3.75082620021036 -40.5685964310848 -19.914837504644
-3.73947264202101 -40.949202990924 -19.859330086497
-3.72493579851846 -39.5687007339056 -20.0103774870928
-3.72519199184743 -39.6970775642457 -19.9933982162481
-3.74602163028248 -39.6097045632735 -20.0251578953731
-3.75491407911157 -39.7040342503881 -20.022040067292
-3.79691962422848 -39.6224431554452 -20.0751773584579
-3.74543909248238 -39.4450817381138 -20.0472444073985
-3.75482108794244 -39.4833899553307 -20.0507963859951
-3.15782608565849 -36.6243589880789 -21.7880765259338
-3.27095468994747 -36.6976052190233 -21.7101027816904
-3.25788255245333 -36.6364594758672 -21.8711675716423
-3.36786327480675 -36.710802911354 -21.792319367921
-3.37089465422863 -36.8295391235883 -21.4991077562148
-3.45891509011523 -36.9021595897595 -21.4521284726615
-3.46895584818749 -36.8445691206813 -21.5842752944159
-3.55394829856387 -36.9181099163941 -21.5362973996716
-3.1516309561479 -36.6834504392662 -21.6113331601683
-3.02014562967549 -36.6103351359936 -21.6768292436074
-3.01151820772274 -36.6704191055196 -21.4995829466911
-2.89409581247438 -36.6008992720752 -21.5789917891386
-2.92739584414109 -36.665064043265 -21.4353995692625
-3.34149647733883 -36.8852061332608 -21.3513763161037
-3.23536138354708 -36.8123636798832 -21.3856279758138
-3.20318228838369 -36.8695375968514 -21.2377564279854
-3.11082443903176 -36.8007083257604 -21.2862153154236
-3.08611262492427 -36.8341904792041 -21.1951927330091
-3.02010642528195 -36.7680660301531 -21.2649681444004
-3.95603891947892 -38.3737197089296 -20.5782128832206
-4.00576007216428 -38.5347821514083 -20.5669062889936
-4.04644452179992 -38.3999882943173 -20.6713478942816
-4.09342065571297 -38.5615561917081 -20.6587480008163
-4.13184085621788 -38.4265603849727 -20.7613941043489
-4.17828026029681 -38.5889143804427 -20.7493517801579
-4.00386360841652 -38.8431651357334 -20.4583875786549
-4.044407320057 -39.0177001644913 -20.4566321680553
-4.09327991771782 -38.870885077557 -20.5525509849287
-4.13131659376956 -39.0455773845738 -20.5492542993952
-4.17789673584364 -38.8986024941948 -20.6434089910919
-3.83035249891174 -38.342084651815 -20.4544858724746
-3.89705209549104 -38.5050405175456 -20.4570898626007
-4.02524243729528 -39.2244700681434 -20.3825657011789
-4.05694113903384 -39.2850264105229 -20.4064961832738
-4.11414269784731 -39.2529488138875 -20.4772659646168
-3.87989765818721 -38.8090050045317 -20.3328701561069
-3.93698801842732 -38.9860671802409 -20.3454744663881
-3.95010119255859 -39.252544035593 -20.2947368368932
-3.90239048533112 -39.1886761764483 -20.2558901915029
-3.82453207939517 -39.2181618285197 -20.1678536782209
-3.90823062107856 -39.4880376505488 -20.2098334585353
-4.06052778773996 -39.5714993787414 -20.3648904076454
-4.03026043576441 -39.6905152911786 -20.3158864285825
-3.90720642703222 -39.9681535320948 -20.1487693326124
-3.95404720123196 -39.7592680172112 -20.2240941466109
-4.05506401923643 -40.6588656738971 -20.2304611610295
-4.02609582804638 -40.4575735071826 -20.2214377568662
-4.02178655577416 -41.0328424252484 -20.152062413911
-4.01435728322665 -41.8341157689971 -20.0571877566677
-4.05846068164169 -40.1455036119252 -20.292922732788
-4.11747878008836 -40.0345989474443 -20.3716880275371
-4.1463972808365 -39.8216831790727 -20.4299351363372
-4.20246895165345 -39.7119065990506 -20.5075724238383
-4.14598536634788 -39.4729368551224 -20.4757169253127
-4.11860745245972 -39.5543298052401 -20.4326457635193
-4.22771755154468 -39.3417216124821 -20.5907576562402
-4.2014983520667 -39.43761111648 -20.5443800178431
-2.43532667190596 -36.3489016790227 -22.2507352351637
-2.28285847464263 -36.3167117450897 -22.3684445613793
-3.82968638114016 -39.5023345916403 -20.1246136602379
-3.7964802936832 -39.4576110786405 -20.0971148596941
-3.79343395086806 -40.3885020045116 -19.9800218259958
-3.82797388603758 -40.0758144430261 -20.0522759478263
-3.82048262371419 -41.1641296230547 -19.9202159164934
-3.78543818521766 -41.4827483954667 -19.8478131041763
-3.81648485072781 -41.6281881415507 -19.864896450364
-3.78161698848047 -41.899430244064 -19.7984247604293
-3.81235557826988 -42.0535827199475 -19.8147553043745
-2.3492512989963 -36.3464122659261 -22.1885814185478
-2.22401530383365 -36.3156377182467 -22.3266931271348
-2.15488415332246 -36.314985997527 -22.2783573722858
-2.27917820621038 -36.3453657145684 -22.1391313766676
-2.1867823724371 -36.3151904653796 -22.3005444189356
-2.31521860849712 -36.3457874086966 -22.1644268555846
-9.57879695654456 -49.6808435229161 -27.4417426074329
-9.58067277767874 -49.7005421686861 -27.4435931996825
-9.58323574025678 -49.7274510181634 -27.4461209717011
-9.5857978856815 -49.7543600351048 -27.4486492661833
-9.5876736375516 -49.774057719604 -27.4505000582151
-9.59751252626255 -49.6377532378163 -27.4131717964997
-9.60102858446598 -49.6375679338253 -27.4301992878226
-9.58417552189897 -49.6460748714992 -27.4247955760025
-9.58844659484435 -49.6489756190962 -27.4397551227962
-9.57716646701961 -49.6616362246738 -27.433931385646
-9.58253926287682 -49.6664865572083 -27.4449210271971
-9.56443084853553 -49.6712650695351 -27.4143279108267
-9.5603575552775 -49.683271551965 -27.4108036090947
-9.55219188187408 -49.6972143390987 -27.3947077880598
-9.55184632328472 -49.7102136434255 -27.3967227759681
-9.54905562275848 -49.7312402124294 -27.3883403784423
-9.55213763552731 -49.7417631790286 -27.3956174677228
-9.55586101598344 -49.7642258075314 -27.3969333815167
-9.56115281135523 -49.7694640995541 -27.4077832353752
-9.57077105038741 -49.7872992116854 -27.4181976831991
-9.57646362070523 -49.7858618419536 -27.4299747332043
-9.5806573783347 -49.8020642960146 -27.4205862368147
-9.57630420605793 -49.800755425077 -27.4054281062709
-9.56112608273884 -49.7807520487251 -27.3921896987967
-9.55804662764056 -49.7720646740995 -27.379334273087
-9.54969954811632 -49.7450154663064 -27.3768008665266
-9.54980237252183 -49.7312753535799 -27.3689648862093
-9.54950400575335 -49.704500795376 -27.3784894102167
-9.5538327260227 -49.6893539332834 -27.377058646609
-9.56059389540146 -49.6700609945762 -27.396801326184
-9.56905844094015 -49.6575314021178 -27.4014452542096
-9.59215374788985 -49.8119712577059 -27.4083622579266
-9.58888592490482 -49.8072543745128 -27.39194939018
-9.56995692797461 -49.7873511672583 -27.3761598128147
-9.56889626172685 -49.7754827148997 -27.3635233761137
-9.5570887857983 -49.7464561090143 -27.3588618560688
-9.5600066368366 -49.7306062351814 -27.3523891069575
-9.56161352182981 -49.6990334184592 -27.3563421737275
-9.56021355198827 -49.6850520379515 -27.3665501848433
-9.57480401332163 -49.6593933884867 -27.3780586914311
-9.57688773289475 -49.6511656913602 -27.3932110812224
-9.6176741184503 -49.6415162617148 -27.454968000255
-9.6317759987799 -49.6458805483766 -27.4641561685552
-9.63998227460716 -49.6661317440536 -27.4870963576697
-9.65176765632916 -49.6776491980301 -27.492581322138
-9.65285032443137 -49.7070255206033 -27.5043945807919
-9.66065437646889 -49.7225259521888 -27.5037159047191
-9.65288835118742 -49.7532030631182 -27.5021946801772
-9.65605905008336 -49.7684846867685 -27.4945767315896
-9.64585990473438 -49.7937385244431 -27.4780460068206
-9.63305146968701 -49.8023172199518 -27.4700450892619
-9.62314939742216 -49.8153816850731 -27.4429337622355
-9.60879928187415 -49.8159195855955 -27.433130970359
-9.60693930339341 -49.8080220834686 -27.4510134216448
-9.59464694168588 -49.8053826265166 -27.4414028397562
-9.59512180190791 -49.7930752205206 -27.4544318324004
-9.58682480887455 -49.7883195202868 -27.4453922794642
-9.60788829685724 -49.7834452504443 -27.4740147364074
-9.60903639575348 -49.7715349052949 -27.479489556996
-9.62012608162886 -49.7574949224718 -27.4936358221688
-9.61754862493192 -49.7445913088546 -27.4935699598809
-9.62326343028219 -49.7234688258557 -27.5000025351682
-9.61725740504141 -49.7130430549458 -27.4946750017499
-9.61645812940932 -49.690484512448 -27.4914092657174
-9.60824222921348 -49.6853421344203 -27.4825092340974
-9.6015172185401 -49.6674122335089 -27.4701655348473
-9.59290045104614 -49.6689442355415 -27.460338573457
-9.60243615819553 -49.6522939495982 -27.4605717257377
-9.61481061923446 -49.6533415298906 -27.4703808913764
-9.62210757977486 -49.6736021918291 -27.488874732106
-9.63317735481796 -49.6820281193303 -27.4964020300991
-9.6335339296932 -49.7093362108591 -27.5042640971289
-9.6414215175846 -49.7228161581555 -27.5067716833533
-9.63372847487053 -49.7498523867693 -27.5025759836805
-9.63739125643582 -49.7647388601464 -27.4986776565772
-9.62264076429792 -49.7842917409983 -27.4842626744769
-9.62216663105612 -49.7965611680265 -27.4742903523585
-9.74027265997233 -49.6282780367892 -27.3370341548363
-9.8870369129818 -49.6271888501231 -27.2781180723691
-9.76684744298698 -49.639044703515 -27.3763610140971
-9.91069736915738 -49.6537368958441 -27.3123007715278
-9.7874113066723 -49.6720901946821 -27.4055808904542
-9.92428958980527 -49.6975024068367 -27.3305429462191
-9.79644999149966 -49.7185618417703 -27.4168647018301
-9.92417037842579 -49.746760827801 -27.327957599425
-9.79154546229096 -49.7660065618698 -27.4071908537263
-9.91037453212813 -49.7883120283691 -27.3052379600616
-9.77401090780584 -49.8017131681874 -27.3791496990876
-9.88659667978587 -49.8110223524574 -27.268470297302
-9.74854360444956 -49.8161121738345 -27.3402552780086
-9.85920716149024 -49.808807697772 -27.2275063236247
-9.72196709857423 -49.805346839958 -27.3009277691781
-9.83554779485242 -49.7822594287656 -27.1933229278479
-9.70140595493526 -49.7722985109618 -27.2717081121489
-9.82195657139018 -49.7384924127931 -27.1750803229149
-9.69236472922007 -49.7258267428982 -27.2604228377684
-9.82207396755687 -49.6892340429839 -27.1776652865158
-9.69726989175171 -49.6783809132347 -27.27009803206
-9.83587053952956 -49.6476830145462 -27.2003860056905
-9.71480463094102 -49.6426768703058 -27.2981386539459
-9.85964848422392 -49.6249739721522 -27.2371534020737
-10.0001808025413 -49.616339378956 -27.1634475435688
-10.0215085241449 -49.6199108935908 -27.1894424077522
-10.027740458837 -49.627456300121 -27.2042321837899
-10.0459308191343 -49.6472612079605 -27.2247300894016
-10.0490771994495 -49.6616859502917 -27.2345557354115
-10.056809168106 -49.6923663317832 -27.2446495332666
-10.0615982569789 -49.7094343064549 -27.2451857344173
-10.0567990656042 -49.7427693675392 -27.2421720449647
-10.0565810377089 -49.7590897646601 -27.2352352093286
-10.0427814203677 -49.7853866914212 -27.2190678701242
-10.0383320525537 -49.7965637668732 -27.2060367507293
-10.0185109362942 -49.8087982880911 -27.181527438881
-10.0117418410219 -49.8118121510309 -27.1654154248167
-9.99049114155419 -49.8067317393347 -27.1396093288538
-9.98393313893478 -49.8007545396779 -27.1242543963372
-9.96622985514902 -49.7797430869228 -27.1045465497779
-9.96235996751436 -49.766350424435 -27.09358483919
-9.95222852367269 -49.7350606681091 -27.085733428026
-9.95279952490742 -49.7178186387384 -27.0816211894985
-9.95223681096171 -49.6846576835082 -27.0882105331347
-9.95781737750031 -49.6681620709693 -27.0915730607749
-9.96625518187332 -49.6420405317566 -27.1113157877865
-9.9760664550076 -49.6306893504505 -27.1207712529979
-9.99325057573627 -49.6176712126115 -27.1471776426297
-9.99716649215748 -49.6144884177203 -27.1430612876384
-10.0089396432347 -49.6097540448418 -27.1566189474697
-10.0008516522613 -49.6090960606371 -27.1395543070981
-10.0115165576591 -49.6059319832652 -27.1550657962615
-10.0315658616616 -49.6113827330628 -27.1855023062091
-10.0419298407866 -49.6180487748813 -27.2000796626845
-10.0581552543599 -49.6409876745598 -27.2239264728416
-10.0655185934319 -49.6556947895878 -27.2336116450861
-10.0734926786414 -49.6899773755579 -27.2445315448403
-10.0759616183489 -49.7087831768407 -27.2466769138936
-10.0734704224597 -49.7452269942257 -27.2417968291641
-10.0704622749059 -49.7630887787776 -27.2357748231521
-10.0580936373408 -49.791930022798 -27.2164539020518
-10.050493013881 -49.8040588694346 -27.2038257952949
-10.0317418260309 -49.8182654048998 -27.1750102950258
-9.99099372138854 -49.8085999367835 -27.114376728869
-10.0007687762461 -49.8152865225634 -27.1293465903904
-10.0209468963075 -49.8200727814045 -27.1593718244079
-10.0188119076189 -49.8170649733283 -27.1612860877922
-10.0265908959094 -49.8124598190322 -27.1775073812401
-9.97418047308556 -49.785681357781 -27.0909217271398
-9.96740424306818 -49.7709537499466 -27.0808436666561
-9.95884050791631 -49.7366915358075 -27.0703151921365
-9.9569587696155 -49.7178665234126 -27.0677766684677
-9.9588628564501 -49.681443198834 -27.0730496414363
-9.96245992827124 -49.6635608703207 -27.0786791424024
-9.97424136442966 -49.6347388374123 -27.0983932181182
-9.98242982261912 -49.6225896700998 -27.1106295164473
-10.0663708573928 -49.7434958843018 -27.2405360082914
-10.0660738462666 -49.7611860490269 -27.2348932634887
-10.0518346587687 -49.7879570048373 -27.216561345131
-10.0468625973967 -49.8008391940565 -27.2041439897061
-10.0712984938784 -49.7087310282177 -27.2452942049135
-10.0663078655691 -49.6909898474917 -27.2430070954034
-10.0611387112601 -49.6575290798039 -27.2325592630857
-10.0516601974714 -49.6445085670233 -27.2233121829397
-10.0383127614463 -49.6213011199608 -27.2001020362203
-10.0263514484171 -49.6165083543678 -27.1867301666444
-9.98089004299464 -49.6259796008282 -27.1137603489377
-9.97192272929814 -49.6389912319153 -27.1040073237475
-9.96167697891201 -49.6656327970128 -27.0830106919619
-9.95738290024846 -49.6834524547608 -27.0800318942006
-9.95645051608736 -49.718087868977 -27.0726093673439
-9.95744770728492 -49.7359584404159 -27.0775611902819
-9.96661392913125 -49.7692897150808 -27.0853450755582
-9.97209719059543 -49.7824396697292 -27.0972564859387
-9.9875626411032 -49.8032023000439 -27.1194329679503
-9.99863378755756 -49.8122787144873 -27.1312608537746
-10.0404827726341 -49.5925289466554 -27.135311630977
-10.0775433079101 -49.597349123872 -27.1597865890266
-10.0744092354734 -49.6061310464819 -27.1855221674874
-10.1074068274346 -49.6306975416129 -27.2029401601912
-10.1006989277391 -49.6481971813425 -27.2228902159552
-10.1246074418465 -49.6858035635974 -27.2260391052701
-10.1123086537711 -49.7074586281281 -27.2374011701123
-10.1245354684037 -49.7479038576966 -27.2228948872141
-10.1061262280273 -49.7680325987673 -27.225169418432
-10.1072110465909 -49.8003541341412 -27.1943497140456
-10.0838104884057 -49.8136904407467 -27.189469405837
-10.0772766431613 -49.8291057872141 -27.148051228207
-10.0513395522861 -49.8321993349343 -27.1398686426945
-10.0427516992887 -49.8264513233685 -27.0964068435832
-10.0174130894468 -49.8185972351079 -27.0896581061841
-10.0128869978744 -49.7931018472187 -27.0532542354132
-9.99112212293921 -49.776528760144 -27.0522912870872
-9.99568629111046 -49.7379945435399 -27.0301555567106
-9.9795125816114 -49.7172698767471 -27.0377798001773
-9.99575735971969 -49.6758970361148 -27.033299938632
-9.98569382546533 -49.6566948476989 -27.0500125148521
-10.0130826863661 -49.6234439729961 -27.0618449479351
-10.0080117441625 -49.6110365591486 -27.0857111342108
-10.0430183640376 -49.5946946600265 -27.1081422044029
-10.0241602662531 -49.593708481529 -27.1460929602434
-10.0100183143802 -49.5973758207043 -27.1305173309956
-9.98905191188597 -49.6131607845505 -27.0996645314186
-9.98513781067754 -49.6163435282866 -27.1037812696031
-9.97532647768782 -49.6305569601281 -27.0927036840324
-9.98266127062984 -49.6208193562025 -27.1091484849348
-9.97431554084712 -49.633190847364 -27.0966666424959
-10.0177927568032 -49.5966192118577 -27.15044248207
-10.0042910528476 -49.6020018575362 -27.1356225108474
-10.0132589070276 -49.6024500347415 -27.1540192883914
-10.0014404577996 -49.6070541015663 -27.1386228480496
-9.96230793242001 -49.6625747896613 -27.0765843588773
-9.9586407780336 -49.6807956453055 -27.0708331571128
-9.95670111562578 -49.7179220926226 -27.0654720090034
-9.95861617902882 -49.7371106422164 -27.0680450213243
-9.9673445168939 -49.772027939464 -27.0787890826809
-9.97425084263244 -49.7870460347992 -27.0890492043438
-9.99112812204308 -49.8097036581706 -27.1132492012538
-10.0022335447986 -49.8191103317732 -27.1268914005981
-9.99349583350541 -49.8141226464404 -27.109063591479
-9.97548408501137 -49.7896978775025 -27.0851612704717
-9.96929842933792 -49.7749793121454 -27.0722733425139
-9.9592437978174 -49.738120824513 -27.0633281424022
-9.95806122447788 -49.7182905412516 -27.0581928683936
-9.95918569667267 -49.679870953717 -27.0660879367593
-9.96385851215776 -49.6602246153454 -27.0697254194755
-10.006206455377 -49.8243066723888 -27.1219337504072
-9.99879705561826 -49.8179000885625 -27.1029051458689
-9.97990077807317 -49.7929974972569 -27.0771470589829
-9.97472392588005 -49.7766878638288 -27.0643691070268
-9.96293900380528 -49.7388393954559 -27.0543601165492
-9.96316349136538 -49.7179556249783 -27.0499065400763
-9.96524081652323 -49.6771378328049 -27.0550171747555
-10.0123067511308 -49.8266791985927 -27.1169216138201
-9.96704910604671 -49.6580739514526 -27.064472616713
-9.98243117278519 -49.6252235524993 -27.0833341430854
-10.0534432677558 -49.9324416727524 -27.0814601744625
-10.0680824817146 -49.9459516588435 -27.1050992386649
-10.0644133624701 -49.96159368591 -27.1079839124037
-10.0515562053375 -49.9848708022509 -27.1191468585012
-10.050317249083 -49.9742531509555 -27.1031309377145
-10.0398537984042 -49.967822175724 -27.0836179351579
-10.0170141577024 -49.9675042887333 -27.0631205971389
-10.0133580030931 -49.9532725116603 -27.0440770602459
-10.0046961972876 -49.9473524716057 -27.0313517610392
-10.0216897700559 -49.9313586582467 -27.0388162555312
-10.0120544762344 -49.9045501901623 -27.0206824033431
-9.99446488834573 -49.9010483724978 -26.9994610722413
-9.97780976330787 -49.8770558176657 -26.975626019731
-9.95959044011185 -49.8892254572681 -26.9665405856183
-9.93572258129984 -49.8617977127994 -26.9455420948792
-9.99021966343659 -49.9319129798778 -27.0103878773173
-9.96661466099149 -49.9206030359017 -26.9893835257411
-9.91213001051245 -49.7715802072972 -26.9138505770965
-9.92900343140798 -49.8063872252821 -26.9241401133894
-9.93760705721279 -49.8353470664995 -26.935735829255
-9.9569220164433 -49.8284028708067 -26.9466029287522
-9.97325686372637 -49.8426838775043 -26.9654946284891
-9.91895675770117 -49.7258397819627 -26.9126911974123
-9.90872170255245 -49.6677781119358 -26.9137656904094
-9.92495129131506 -49.6242302565586 -26.9269461685704
-9.92726073638592 -49.567965957206 -26.9475739264618
-9.94525516972121 -49.5495047109438 -26.9620623258158
-9.95636790131893 -49.5248759751767 -26.9801330780083
-9.97282249055483 -49.5414110211111 -26.9847808583444
-9.99435283578403 -49.5300386919153 -27.0125894914633
-9.99898580650987 -49.5055387800887 -27.0259431191902
-10.0280936691156 -49.4913603691409 -27.0675361181044
-10.0385202231808 -49.4699972904895 -27.093504552507
-10.0119161727041 -49.4637425123262 -27.0712153704325
-10.0251251672895 -49.4453817366538 -27.1067366889715
-9.96511945903672 -49.4931738989989 -27.0094558477332
-9.98620701899846 -49.4852090331067 -27.0274572557963
-10.0511561604025 -49.4941274583218 -27.0967789639468
-9.96170975895711 -49.5660397568782 -26.9667101061519
-9.96267390898405 -49.5939823198802 -26.9617562239979
-9.94390987467729 -49.6337115732984 -26.9364806857704
-9.94753044184906 -49.6759170278147 -26.9349147087101
-9.93880691363555 -49.7244973811018 -26.9243056985131
-9.95129512567733 -49.7632936107436 -26.9363321776945
-9.94831839063849 -49.7994430295894 -26.9350072128867
-10.0303515758614 -49.9372786983012 -27.0515415547378
-10.0393106978326 -49.9416527245875 -27.0648318456447
-10.0469363029446 -49.599110967323 -27.179983918845
-10.0550841854889 -49.6080654649015 -27.1975757746034
-10.0400825912204 -49.601906370261 -27.1836099670763
-10.0475427363654 -49.612261175649 -27.1999814261144
-10.0342207561282 -49.607422194451 -27.1852107186522
-10.0429722914812 -49.6169054705511 -27.2004226104496
-10.0598488452168 -49.6395629217921 -27.2246215275482
-10.0673434618999 -49.6545615827298 -27.2344877979775
-10.0754821498225 -49.6894992518084 -27.2456232845687
-10.0779863221971 -49.7086698208294 -27.247803259091
-10.0754576431698 -49.7458155304137 -27.2428348824039
-10.0723794130508 -49.7640158420964 -27.2366911755934
-10.0597834213271 -49.7934179370968 -27.2170030095848
-10.0520274338389 -49.8057703381217 -27.2041294755349
-10.0326599557247 -49.8195550271554 -27.1750489636538
-10.0231953938992 -49.8240824914827 -27.1580828308589
-10.0367475170233 -49.8243819645532 -27.173422506746
-10.0284962897943 -49.8295938307921 -27.1551012354135
-10.043862926727 -49.8285897327597 -27.1699635894767
-10.0350827878224 -49.8320816843866 -27.1508125724217
-10.0727251462798 -49.6330081120844 -27.2241710977411
-10.0832637190891 -49.6491410762698 -27.2333739282663
-10.0896860101685 -49.6871634783663 -27.2469574931162
-10.0948224307431 -49.7078746479696 -27.2478358456473
-10.0896655816171 -49.7482452280938 -27.2439409988939
-10.0887425642688 -49.767957949323 -27.2357808545768
-10.0726704308617 -49.7998810807903 -27.215929581733
-10.0666535364351 -49.8132920368401 -27.2004378373796
-10.0852061832323 -49.708019553245 -27.2493628467496
-10.0800284499203 -49.6883199935458 -27.2468916365993
-10.0712033891683 -49.6532990051666 -27.2353694375977
-10.08008582539 -49.7465696922114 -27.2441307624308
-10.0794088032003 -49.7660841974569 -27.2378305620441
-10.066503326135 -49.7980363558776 -27.2169151508247
-10.0669968574805 -49.6357605297361 -27.2255883075848
-10.055043467624 -49.8085693976075 -27.2035463863286
-10.0940033290599 -49.5527838789001 -27.1557834129299
-10.0539927241382 -49.5489798986291 -27.0959691039293
-10.0175917524351 -49.5771196536109 -27.0400055739398
-9.99224104494137 -49.631180759386 -26.9993468120649
-9.98299795728644 -49.7002289225282 -26.9821088416767
-9.98134273394439 -49.7842740320198 -26.9755176705863
-10.0181579715413 -49.8363862296442 -27.0281781654862
-10.0533591464868 -49.8704121676462 -27.0793015574259
-10.093328299684 -49.8739459828316 -27.1390671701329
-10.129593498025 -49.8459116363115 -27.1948216429755
-10.1549478435901 -49.7923041967856 -27.235463059504
-10.1643614054305 -49.7237696154899 -27.2529328348902
-10.1659369564619 -49.6410336436233 -27.2593413494308
-10.1295074656632 -49.587562190619 -27.2073249119903
-10.0928978932634 -49.4584702703767 -27.2059274383145
-10.0743716059229 -49.4539505769013 -27.1663331598932
-10.0577031912416 -49.440216984892 -27.156690214734
-10.0570698815374 -49.4400680598699 -27.1557152889172
-10.0564334955202 -49.439926927324 -27.1547379984558
-10.0557956636985 -49.4397909727104 -27.1537592592957
-10.0551565707767 -49.439662759418 -27.1527785386842
-10.0545151272169 -49.439542510732 -27.1517965332394
-10.053873148232 -49.4394301754975 -27.1508136261545
-10.0532306338219 -49.4393257537146 -27.1498298174296
-10.0525874916345 -49.4392279636888 -27.1488453734409
-10.0519438140219 -49.4391380871145 -27.1478600278122
-10.0512992371214 -49.4390565194076 -27.1468755569729
-10.0506541247958 -49.4389828651522 -27.1458901844936
-10.0500095665828 -49.4389169010628 -27.144903213756
-10.0493644729445 -49.438858850425 -27.1439153413785
-10.0487177543434 -49.4388089365241 -27.1429272639789
-10.0480700441023 -49.4387660497963 -27.1419403277451
-10.0474217060839 -49.4387297948256 -27.1409527562476
-10.0467747402052 -49.4387026838458 -27.1399643999269
-10.0461272389013 -49.4386834863175 -27.1389751419662
-10.0454780202824 -49.4386711438318 -27.1379859453598
-10.0448297175884 -49.4386670590584 -27.1369980067361
-10.044181969007 -49.4386706644511 -27.1360084698542
-10.0435344106754 -49.4386823554258 -27.1350191111436
-10.1243924751991 -49.4884882077265 -27.2372874558227
-10.1383481157316 -49.5029681706182 -27.2740784632498
-10.1647321802895 -49.5486797542 -27.2960073872987
-10.1757934103566 -49.5805217045761 -27.3271911170345
-10.193537432392 -49.6379620698382 -27.3346656630417
-10.1971107571055 -49.6849695536965 -27.3535960934406
-10.2013574350194 -49.7401779783388 -27.3410292024891
-10.1923576889187 -49.7975171481894 -27.3407361706945
-10.1852236737512 -49.8403138385598 -27.3119916694475
-10.1636323175785 -49.8926819843595 -27.292938126876
-10.1507427396225 -49.9148272642495 -27.2564314003441
-10.1223320702958 -49.9519375418291 -27.2269252293125
-10.1071454096708 -49.9575288948759 -27.1875753821343
-10.0786882263862 -49.9778550419087 -27.1579051152975
-10.0704169641145 -49.9752710485149 -27.1340312649736
-10.0779711538852 -49.9618516829608 -27.1286215648622
-10.0966420066282 -49.9401815230345 -27.1485290717187
-10.117545000142 -49.9332747415559 -27.1836090386669
-10.1410884606652 -49.9004316023111 -27.215136556314
-10.1590995395206 -49.8875754780515 -27.2486090708129
-10.1745618186292 -49.8415519144907 -27.268302854322
-10.1877963749039 -49.816435554889 -27.2951787264246
-10.1927662691153 -49.763315346861 -27.2993942435729
-10.1991933140633 -49.7298544606812 -27.3165002183905
-10.192634224312 -49.6774120216621 -27.3034284251229
-10.1912250205545 -49.6407280554614 -27.3090269788227
-10.1742074715774 -49.5966700322207 -27.2798300582718
-10.1654586533478 -49.5620620962214 -27.274285012755
-10.1406104569675 -49.5328437628469 -27.2325317307891
-10.1259283433767 -49.5049814579338 -27.2174630979057
-10.0955479421396 -49.4871078136026 -27.1692777446248
-10.0754857866214 -49.4660948699199 -27.1495078241206
-10.0926698543982 -49.928929603411 -27.1377398216532
-10.0816448699858 -49.493777323353 -27.1425173188537
-9.83634000660052 -41.4415337847087 -28.2308370628112
-9.85375760998866 -41.4649189479784 -28.2558139744506
-9.85369895824098 -41.5226650524259 -28.2528995427431
-9.8291967880164 -41.5046470015776 -28.2170371736414
-9.83819813121474 -41.538871503966 -28.2288629325759
-9.83227866339405 -41.4767284002551 -28.2230258101698
-9.8550554839664 -41.3984422179145 -28.2022665182544
-9.85857281641178 -41.3982592540267 -28.2192927802064
-9.84171975384476 -41.4067661917006 -28.2138890683863
-9.84599191632789 -41.4096667160121 -28.228847918562
-9.8347106066133 -41.4223262631808 -28.2230251444062
-9.84008340247052 -41.4271765957154 -28.2340147859573
-9.82197498812922 -41.4319551080421 -28.2034216695869
-9.81790169487119 -41.443961590472 -28.1998973678549
-9.8097372033576 -41.4579054360146 -28.1838005838255
-9.8093905552305 -41.4709049636269 -28.185816268352
-9.80660094424202 -41.4919313093453 -28.177433174208
-9.80968286465875 -41.5024529942503 -28.1847105298649
-9.81340624511488 -41.524915622753 -28.1860264436588
-9.81869804048667 -41.5301539147757 -28.1968762975173
-9.82831518998111 -41.5479892501925 -28.2072914419593
-9.83400785265103 -41.546553162155 -28.2190682255882
-9.83820042839066 -41.5627545578071 -28.209680692193
-9.83384834565162 -41.5614454635841 -28.1945218650311
-9.81867131187029 -41.5414418639467 -28.1812827609388
-9.81559185677199 -41.5327544893211 -28.1684273352291
-9.80724486959985 -41.5057065632224 -28.1658936622923
-9.80734660446761 -41.4919666737813 -28.1580583785931
-9.80704932723688 -41.465191892292 -28.1675822059824
-9.81137686561639 -41.4500439717904 -28.1661524053692
-9.81813803499515 -41.4307510330832 -28.1858950849442
-9.8266014909961 -41.4182216639103 -28.1905397095879
-9.84969897702129 -41.5726610729276 -28.1974553200687
-9.84643115403625 -41.5679441897344 -28.1810424523221
-9.82750106756829 -41.5480412057654 -28.1652535715748
-9.82643931178278 -41.5361729766922 -28.152617831492
-9.81463183585424 -41.5071463708068 -28.1479563114471
-9.81755077643028 -41.4912962736885 -28.1414828657177
-9.81459308342316 -41.4609686561614 -28.1501551322505
-9.82214710000148 -41.445336034129 -28.1506216086055
-9.82739433819566 -41.4218819805851 -28.1712635063679
-9.83899526859894 -41.4106094722631 -28.1775866032143
-9.87521835039608 -41.4022075819162 -28.2440614926388
-9.88931895648375 -41.4065695284747 -28.2532508903098
-9.897525232311 -41.4268207241518 -28.2761910794243
-9.90931061403302 -41.4383381781282 -28.2816760438927
-9.91039337448731 -41.4677157823958 -28.2934890361702
-9.91819851606258 -41.4832159906959 -28.2928096634793
-9.91043249078111 -41.5138931016253 -28.2912884389374
-9.91360318967705 -41.5291747252756 -28.2836704903497
-9.89763196168364 -41.552979949332 -28.2701811446313
-9.89675474956895 -41.5639029642517 -28.256707005794
-9.8806946265536 -41.5760715002947 -28.2320268243776
-9.86634451100559 -41.5766094008171 -28.2222240325011
-9.8644834429871 -41.5687121219756 -28.240107180405
-9.8797107706498 -41.5572512065336 -28.2633841111187
-9.88018490389161 -41.5449817795053 -28.2733564332371
-9.89493539602952 -41.5254288986535 -28.2877714153374
-9.89127379635406 -41.5105434836853 -28.2916687794462
-9.89896574953038 -41.4835074783569 -28.2958651757371
-9.89107925117673 -41.470027307775 -28.2933568928946
-9.89072149441165 -41.4427181578374 -28.2854957888593
-9.87965171936855 -41.4342922303362 -28.2779684908662
-9.87235485118024 -41.4140328500921 -28.2594743837602
-9.85998147967906 -41.4129850465141 -28.2496645215034
-9.8590613581338 -41.428102272016 -28.2592592936075
-9.85044459063984 -41.4296342740486 -28.2494323322172
-9.85218999174183 -41.5660728883091 -28.2304972951345
-9.8526659415016 -41.5537652590276 -28.2435255911606
-9.86543352598868 -41.5441350656659 -28.2631077985495
-9.86658271442266 -41.5322244972311 -28.26858192252
-9.87767249265013 -41.5181857961023 -28.2827279213164
-9.87509394641544 -41.5052824057706 -28.2826627556466
-9.88080875176572 -41.4841599227716 -28.2890953309339
-9.8748015446351 -41.4737330934529 -28.2837687605101
-9.87400226900301 -41.4511745509551 -28.2805030244776
-9.86578527926943 -41.4460323962128 -28.2716036894757
-9.84436904082034 -41.5490108404882 -28.2344857718481
-9.99781561767618 -41.3889670168874 -28.1261288765909
-10.1445810525755 -41.3878788886302 -28.0672118311293
-10.0243914902286 -41.3997334603277 -28.1654550392337
-10.168241416399 -41.4144256526568 -28.1013947966644
-10.0449542643761 -41.4327791747803 -28.1946756122089
-10.1818333655362 -41.4581928407597 -28.1196384814087
-10.0539948567684 -41.4792520524078 -28.2059595404017
-10.1817152436945 -41.5074510384385 -28.1170524379965
-10.0490896018846 -41.5266966003769 -28.1962846124865
-10.1679186717218 -41.5490020668762 -28.0943317188218
-10.0315550473995 -41.5624032066945 -28.1682434578478
-10.1441408193796 -41.5717123909645 -28.0575640560622
-10.0060877440433 -41.5768022123415 -28.1293490367688
-10.1167531162967 -41.569497685124 -28.0166004655781
-9.9795130533807 -41.5660368273101 -28.0900219111315
-10.0930926601211 -41.5429496394031 -27.9824177664194
-9.95894900499119 -41.5329887727543 -28.0608025675272
-10.0794996214461 -41.4991826745856 -27.9641747782932
-9.94990886881375 -41.4865167814053 -28.0495165965286
-10.0796181071506 -41.4499240814909 -27.966759045276
-9.9548140313454 -41.4390709517418 -28.0591917908202
-10.0934154047983 -41.4083732251837 -27.989480844262
-9.97234940385765 -41.403365799249 -28.0872337588938
-10.1171932571406 -41.3856629010954 -28.0262485070216
-10.2474270223786 -41.5670720262498 -27.9291692091544
-10.2511285686222 -41.5688353497498 -27.9264005390697
-10.2425425549164 -41.5624244571942 -27.9124776426077
-10.2562712912653 -41.5728022842522 -27.9217777674539
-10.2472406798477 -41.5669003699126 -27.9066131599444
-10.2485367714445 -41.569290198576 -27.9034711842473
-10.2317235231415 -41.5463716195735 -27.8800161825181
-10.2249483826619 -41.5316437884537 -27.8699374254163
-10.2163857370477 -41.4973813510292 -27.8594082542786
-10.214504724422 -41.4785565107646 -27.8568708104211
-10.2164077217188 -41.4421334094715 -27.8621444800078
-10.2200037040022 -41.4242513042437 -27.867774677592
-10.2317844144856 -41.3954290992048 -27.8874876734965
-10.2399739622128 -41.3832797086069 -27.8997232752075
-10.2587269652757 -41.3690731219866 -27.9285391586698
-10.2679807870777 -41.368679297675 -27.9449879821386
-10.2648852668645 -41.3722270711801 -27.9465027485575
-10.2540632099036 -41.3755686591125 -27.9325279375393
-10.2595551071462 -41.3765198748357 -27.9508598783809
-10.2480705312155 -41.3793191457241 -27.9379510576012
-10.2336113202763 -41.391379561088 -27.9098660915694
-10.223800047142 -41.4027307423941 -27.900410626358
-10.215362242769 -41.4288522816068 -27.8806678993464
-10.2097816762304 -41.4453478941456 -27.8773053717062
-10.2103443901761 -41.4785088493759 -27.87071602807
-10.2097715737286 -41.4957509299016 -27.8748278834043
-10.2199030175703 -41.5270406862274 -27.8826792945683
-10.2237747204177 -41.5404332975603 -27.8936413883494
-10.2296402406514 -41.5431299315217 -27.886350941317
-10.2241569791872 -41.5299799768733 -27.8744395309365
-10.2149925725536 -41.4966486510534 -27.8666560288534
-10.2139964708938 -41.4787778563291 -27.8617035092973
-10.2149288550549 -41.4441424421128 -27.8691260361541
-10.2192211185057 -41.4263228355198 -27.8721044507221
-10.2294657793541 -41.3996814937078 -27.8931017791258
-10.2384330930506 -41.3866698626207 -27.9028548043161
-10.2980280017656 -41.3532187618771 -27.9244046931191
-10.3350885370416 -41.3580389390936 -27.9488796511687
-10.3319533750671 -41.3668210849889 -27.9746159262476
-10.3649509670283 -41.3913875801199 -27.9920339189514
-10.3582430673328 -41.4088872198495 -28.0119839747153
-10.3821515814402 -41.4464936021045 -28.0151328640302
-10.3698527933648 -41.4681486666351 -28.0264949288725
-10.3820796079974 -41.5085938962036 -28.0119886459743
-10.3636704599731 -41.5287239189688 -28.0142629108158
-10.3647541889989 -41.5610456776281 -27.9834439030475
-10.3413536308137 -41.5743819842336 -27.978563594839
-10.3348196932173 -41.5897960490066 -27.9371456835853
-10.308882602342 -41.5928895967268 -27.9289630980728
-10.3002947493447 -41.587141585161 -27.8855012989615
-10.2749561395027 -41.5792874969004 -27.8787525615624
-10.2704300479303 -41.5537921090112 -27.8423486907915
-10.2486652653472 -41.5372203036309 -27.8413854760891
-10.2532294335185 -41.4986860870267 -27.8192497457126
-10.2370568135572 -41.4779611969485 -27.8268732925612
-10.2533025888511 -41.4365868513365 -27.8223930007741
-10.2432390545968 -41.4173846629205 -27.8391055769942
-10.2706268259598 -41.3841340115031 -27.8509387066953
-10.2655547942184 -41.3717268209411 -27.8748055895891
-10.3005625036312 -41.3553846985335 -27.8972359631631
-10.2817054953845 -41.3543982967507 -27.9351860223855
-10.2675624539739 -41.3580658592114 -27.9196110897558
-10.2465949619419 -41.373851046343 -27.8887589867969
-10.2343085829812 -41.3889643446724 -27.8797371793195
-10.2207334650702 -41.4212962227208 -27.8621299879628
-10.219852433826 -41.4232653957146 -27.8656809738783
-10.2161852794396 -41.4414862513588 -27.8599297721138
-10.2753368963969 -41.3573092503648 -27.9395362408302
-10.2618341029035 -41.3626921193286 -27.9247169662257
-10.2417732815197 -41.3785620265047 -27.8957700076739
-10.2402061358986 -41.38150956684 -27.8982433235064
-10.2318604061159 -41.3938810580015 -27.8857614810675
-10.2708030466213 -41.3631400732486 -27.9431130471516
-10.258985686931 -41.3677439167879 -27.9277159101917
-10.2142474322446 -41.478612647521 -27.8545690071976
-10.2161628595103 -41.4978008016989 -27.8571402430891
-10.2248915612381 -41.5327177035306 -27.8678825280162
-10.2317960717639 -41.5477358500208 -27.8781422664859
-10.2486722616368 -41.5703936966777 -27.902342960014
-10.2597776843923 -41.5798003702803 -27.9159851593583
-10.2510399730991 -41.5748126849474 -27.8981573502392
-10.2330300398178 -41.5503878648546 -27.8742554124251
-10.2268432946066 -41.5356695227829 -27.8613681810855
-10.2167893887612 -41.4988112072809 -27.8524240607851
-10.2156050002089 -41.4789809751745 -27.8472884035832
-10.2176377772924 -41.4390333233448 -27.8522902690678
-10.2245921561026 -41.4187642132451 -27.8535670720913
-10.2399742228411 -41.3859138142918 -27.8724285984637
-10.263749505433 -41.5849969341813 -27.9110282057855
-10.2563401056742 -41.578590350355 -27.8919996012472
-10.2374438281291 -41.5536877590494 -27.8662415143612
-10.2322670682881 -41.5373794073156 -27.8534632960287
-10.2204821462133 -41.4995309389427 -27.8434543055511
-10.2207077233112 -41.4786469451797 -27.8390000324601
-10.2227849561169 -41.4378278713119 -27.8441109335157
-10.2698498011868 -41.5873694603852 -27.9060160691984
-10.2994750699181 -41.3787385901029 -27.9891727248266
-10.2961869849229 -41.3812784045957 -27.9890875844101
-10.2853925922601 -41.375433607201 -27.9750992013132
-10.2891764285866 -41.3861365843512 -27.9910308526292
-10.2793350981265 -41.3797657476729 -27.9779451924188
-10.2754432679706 -41.3817755019498 -27.9802402823397
-10.3156993939536 -41.4016777130669 -28.0130202316018
-10.3230634587007 -41.4163850002253 -28.0227064836576
-10.3310375439101 -41.4506675861953 -28.0336263834119
-10.3335064836176 -41.4694733874782 -28.0357717524651
-10.3310145620534 -41.5059170327328 -28.0308905879243
-10.3280071401747 -41.5237789894151 -28.0248696617236
-10.3156385026095 -41.5526202334355 -28.0055487406233
-10.3080378791497 -41.564749080072 -27.9929206338665
-10.2892848760868 -41.5789556666923 -27.9641047504041
-10.2776783487722 -41.5794271519103 -27.9492246563939
-10.2749343756392 -41.5760694201118 -27.9516039615073
-10.283524961521 -41.5728001571024 -27.9670668783474
-10.2686759066335 -41.572152489101 -27.9549749219241
-10.2760550758879 -41.5694883265982 -27.9706211976412
-10.2958761921474 -41.5572538053803 -27.9951305094895
-10.3003255599613 -41.5460767299282 -28.0081616288844
-10.3141251773026 -41.5197798031672 -28.0243289680888
-10.3143439308729 -41.5034595781767 -28.0312668835362
-10.3160190502052 -41.4705474453868 -28.0353875917201
-10.3175198716893 -41.4530841155495 -28.0326794200275
-10.3066213390432 -41.4223759887988 -28.0236494941717
-10.303474958728 -41.4079512464676 -28.0138238481618
-10.3288437230099 -41.4694208434393 -28.0343872670556
-10.3238520051628 -41.4516798859988 -28.0321008541636
-10.318681761316 -41.4182193415964 -28.021653718464
-10.3092032475274 -41.4051988288159 -28.012406638318
-10.3239160865243 -41.5041856995234 -28.0296290704334
-10.3236179858602 -41.521876087534 -28.0239870222489
-10.3093777088247 -41.5486472666298 -28.0056558005092
-10.3044056474526 -41.561529455849 -27.9932384450844
-10.3194024382144 -41.6903803677185 -27.8806119562983
-10.3098318157661 -41.7014134226824 -27.8707695531133
-10.2965681655336 -41.702447577317 -27.8534189199052
-10.2978086776646 -41.7286141992876 -27.8733189453882
-10.2722803912083 -41.725188098688 -27.8483518738556
-10.3214825320031 -41.7222109686216 -27.8964594827391
-10.3081816345086 -41.7350563921634 -27.8928351525051
-10.3093652706387 -41.7457037205323 -27.9089552917391
-10.2536123908034 -41.6955023779948 -27.8072423597576
-10.2180747370145 -41.6703676902028 -27.7679515753758
-10.2140218232675 -41.6423391827225 -27.7497232288744
-10.2025746991323 -41.6168522146813 -27.7336473995027
-10.2143411482085 -41.5891861887812 -27.7349125395063
-10.2057444817249 -41.5604248960751 -27.7232789015785
-10.2082864973469 -41.5237561159285 -27.7242881993919
-10.196251171423 -41.485992254184 -27.71258228697
-10.2045608188678 -41.4370431741637 -27.7229093853977
-10.2010691427718 -41.3957558873263 -27.724360404471
-10.2194294245367 -41.3556262208793 -27.7493602500738
-10.2184622251069 -41.3283090114834 -27.7540570020522
-10.2293360716777 -41.303558400804 -27.7718723056162
-10.2146511286385 -41.2847513711132 -27.7694102531812
-10.2280513420564 -41.2644995969449 -27.7907979651737
-10.2313651879106 -41.2432101403055 -27.8113637975852
-10.2686526779421 -41.2246399996658 -27.8590165486062
-10.281539873255 -41.2058679437175 -27.8945421718648
-10.1835023085957 -41.5913020334482 -27.7187809934606
-10.1853422403334 -41.5579909996583 -27.7099642887702
-10.1687371194574 -41.5166785615213 -27.6995713106246
-10.1771040349249 -41.4813485961936 -27.701180011011
-10.1681523240394 -41.4184014944291 -27.7038646410651
-10.1838077844416 -41.3817578655821 -27.7167179360973
-10.1932590410418 -41.3376104300207 -27.7333658542316
-10.1922298814069 -41.3094266452574 -27.7471708142081
-10.2942038791464 -41.2312662715616 -27.8799157440276
-10.283989902199 -41.2528558083534 -27.8540761722359
-10.2551248551404 -41.267518993097 -27.8126111444029
-10.2506336668872 -41.2917885363796 -27.799575359879
