# .PCD v.7 - Point Cloud Data file format
VERSION .7
FIELDS x y z
SIZE 4 4 4
TYPE F F F
COUNT 1 1 1
WIDTH 890
HEIGHT 1
VIEWPOINT 0 0 0 1 0 0 0
POINTS 890
DATA ascii
-338.78883378293 260.268202132769 300.607549634654
-338.936503117042 260.583215027047 308.27572942452
-339.08413490492 260.879304619928 300.509103411913
-338.985688682179 261.961987792679 300.607549634654
-338.975851569152 261.991574224228 300.912650323438
-338.936503117042 262.02108556331 308.27572942452
-339.162869355373 353.641290518884 297.684312577471
-338.916791344754 354.714136578608 297.694149690499
-338.808545555218 354.418835456619 297.753209914897
-339.074297791892 354.98075237864 297.684312577471
-339.153032242345 355.295690180451 297.615415240046
-338.769159556875 356.102784003501 297.664638351416
-338.808545555218 356.457107803656 297.615415240046
-339.143195129318 356.929552052606 297.566192128675
-339.08413490492 357.815380326109 300.784730307848
-339.005400454467 357.90395188959 301.375257459361
-339.054586019605 357.86460343748 302.015045268477
-339.044748906577 357.86460343748 302.329983070289
-338.936503117042 357.972849227015 302.900835995747
-338.867605779616 358.031909451413 303.501237806521
-338.847894007328 358.071295449756 303.835887380621
-338.847894007328 358.061458336728 304.446126304422
-339.093972017947 358.209090124607 305.066202341251
-338.975851569152 358.33704768643 297.526843676565
-338.867605779616 358.445293475965 305.273757916884
-339.212092466743 358.907900611888 305.263920803857
-338.975851569152 359.970909558585 297.467783452167
-338.985688682179 359.941360673269 299.032747986897
-338.887280005671 360.049644009038 305.244246577802
-339.044748906577 360.305559132684 305.214697692486
-338.985688682179 361.575222545424 297.408723227769
-339.054586019605 361.506325207999 297.753209914897
-338.985688682179 361.575222545424 305.204860579459
-338.985688682179 361.998443683004 305.126126129006
-338.877442892644 362.087052792718 305.401715478708
-338.65103910808 254.17572510025 300.607549634654
-338.336101306268 255.032004488438 300.676446972079
-338.345938419295 255.504486283621 300.578038295571
-338.444347095803 256.843009487553 300.617386747681
-338.74948533082 257.423774618505 300.548489410256
-338.513244433229 258.211119123034 303.69809270577
-338.503407320201 258.230868441555 304.042579392897
-338.483733094146 258.230868441555 305.401715478708
-338.473895981119 258.240705554583 307.38006403799
-338.345938419295 258.398174455488 300.617386747681
-338.444347095803 258.280054006693 304.377228966997
-338.385286871405 258.358826003378 304.997305003825
-338.385286871405 258.358826003378 305.677304828409
-338.414835756721 258.319402458803 306.011954402509
-338.395161530666 258.348913797885 306.356441089636
-338.444347095803 258.299728232747 307.04541446389
-338.444347095803 258.28989111972 307.724550725117
-338.36561264535 258.388337342461 308.000140074818
-338.532956205517 258.683600918218 308.27572942452
-338.739648217793 258.900092497288 300.578038295571
-338.74948533082 258.880418271233 308.32495253589
-338.523081546256 259.648163642173 308.403686986343
-338.375449758378 259.835143882162 300.617386747681
-338.601853542942 260.032036327643 308.334789648918
-338.345938419295 260.809543719145 308.423361212398
-338.336101306268 261.312437963001 300.627223860709
-338.621527768997 261.440395524824 308.334789648918
-338.61169065597 261.942313566624 300.548489410256
-338.483733094146 262.09978246753 300.824078759958
-338.739648217793 261.794681778746 308.295403650575
-338.385286871405 262.217902916326 308.817071010896
-338.739648217793 262.277000686957 308.836745236951
-338.670750880367 353.749573854653 297.54651790262
-338.552630431572 353.877531416476 297.802433026267
-338.434509982776 355.640176867578 297.684312577471
-338.31638953398 355.335076178794 297.753209914897
-338.66091376734 355.807520427745 297.733535688842
-338.267203968843 357.027998275347 297.684312577471
-338.444347095803 357.264201626706 297.625252353073
-338.710099332477 357.795706100054 297.566192128675
-338.306552420952 358.209090124607 300.499266298886
-338.572304657627 357.943337887933 300.952036321781
-338.601853542942 357.90395188959 301.257137010565
-338.542793318544 357.963012113988 301.857538821339
-338.532956205517 357.972849227015 302.477614858167
-338.473895981119 358.04174656444 302.763041320897
-338.444347095803 358.081132562783 303.373280244698
-338.434509982776 358.081132562783 304.032742279869
-338.375449758378 358.140192787181 304.308331629571
-338.31638953398 358.199253011579 304.908733440345
-338.257366855815 358.681534373557 297.615415240046
-338.542793318544 358.3862707978 305.244246577802
-338.375449758378 358.957123723259 297.54651790262
-338.36561264535 358.976797949314 305.34265525431
-338.690425106422 359.449242198264 297.526843676565
-338.464058868091 359.27206152507 305.332818141282
-338.739648217793 359.793728885391 297.477620565195
-338.739648217793 359.803565998419 305.263920803857
-338.434509982776 360.541762484043 297.536680789593
-338.375449758378 360.581148482386 305.313143915227
-338.473895981119 360.88624917117 297.477620565195
-338.601853542942 361.161838520872 305.204860579459
-338.513244433229 360.866574945115 305.283595029912
-338.710099332477 361.457102096629 297.408723227769
-338.66091376734 361.516162321026 305.195023466431
-338.454184208831 362.126401244828 305.263920803857
-338.739648217793 361.840974782098 306.021791515536
-338.039936620921 254.431640223897 300.420531848433
-338.039936620921 254.904046926614 300.676446972079
-337.833244608645 256.114687661189 300.686284085107
-338.098996845319 256.29183078815 300.686284085107
-337.86279349396 257.531982861808 300.686284085107
-338.069485506236 257.768223759399 300.696121198134
-338.237655083527 258.535969130339 303.245360229107
-337.990751055783 258.368663116406 303.560298030919
-337.990751055783 258.378500229433 303.904784718046
-338.039936620921 258.319402458803 304.583920979273
-337.971039283496 258.398174455488 304.869347442002
-337.990751055783 258.358826003378 305.559184379613
-338.030099507893 258.32923957183 305.90367106674
-337.990751055783 258.368663116406 306.563133101912
-337.990751055783 258.378500229433 306.907619789039
-337.990751055783 258.358826003378 307.586756050266
-337.990751055783 258.388337342461 307.931242737393
-338.18846951839 258.604828921532 308.27572942452
-337.823407495617 259.047799377632 308.423361212398
-338.000588168811 259.333225840362 300.676446972079
-338.198306631417 259.539880306405 308.393849873316
-337.823407495617 260.494605917333 300.696121198134
-337.90214194607 260.396159694592 308.433198325426
-337.892304833043 260.879304619928 300.646935632997
-337.990751055783 260.760358154007 308.403686986343
-338.069485506236 262.119531786051 300.705958311162
-338.237655083527 261.922639340569 301.119342335714
-337.793896156535 261.961987792679 308.413524099371
-337.892304833043 262.326186252094 309.023763023172
-337.81357038259 353.838145418133 297.625252353073
-338.198306631417 353.838145418133 297.753209914897
-337.784059043507 354.27120366874 297.891004589747
-338.098996845319 354.773196803006 297.822107252322
-337.961202170468 356.132332888817 297.772884140952
-338.237655083527 356.653962702905 297.733535688842
-338.000588168811 356.506330915026 297.753209914897
-337.882467720015 357.844929211425 297.684312577471
-338.098996845319 358.031909451413 300.833915872985
-338.128545730634 358.00239811233 301.493377908157
-338.108833958346 358.022072338385 301.778804370886
-338.039936620921 358.090969675811 302.389043294687
-338.010425281838 358.120518561126 302.999282218488
-337.990751055783 358.159867013236 303.284708681217
-337.931690831386 358.189415898552 303.904784718046
-337.961202170468 358.179541239291 304.859510328974
-338.138382843662 358.37639613854 297.625252353073
-337.882467720015 358.258313235977 304.515023641847
-337.86279349396 358.258313235977 305.126126129006
-337.971039283496 358.573251037789 305.34265525431
-337.81357038259 359.14414150948 299.9185762604
-338.138382843662 358.799654822353 305.352492367337
-337.833244608645 359.508302422662 297.615415240046
-337.754510158192 359.596873986142 305.401715478708
-337.990751055783 359.754380433281 297.615415240046
-337.892304833043 359.862626222817 305.401715478708
-338.208143744445 360.354744697822 297.54651790262
-338.178594859129 360.384293583137 305.332818141282
-337.823407495617 361.152001407844 297.556355015648
-338.18846951839 361.181512746927 298.294551501272
-337.833244608645 361.142164294817 305.352492367337
-337.882467720015 361.506325207999 297.536680789593
-337.892304833043 361.496488094971 305.332818141282
-338.030099507893 361.762240331646 297.772884140952
-338.138382843662 362.047666794375 305.263920803857
-337.990751055783 362.215010354541 305.81509950326
-337.961202170468 362.254358806651 305.470612816133
-337.272228796214 254.372542453266 300.617386747681
-337.341126133639 255.258408273002 300.755181422532
-337.715161706082 255.780075633323 300.715832970422
-337.301777681529 256.764312583333 300.774855648587
-337.606878370313 257.364676847874 300.696121198134
-337.282065909241 258.230868441555 300.76501853556
-337.380512131982 258.604828921532 300.745344309505
-337.488757921518 258.476871359708 303.452052241384
-337.537981032888 258.427685794571 303.835887380621
-337.606878370313 258.348913797885 304.515023641847
-337.587204144259 258.358826003378 304.859510328974
-337.557655258943 258.398174455488 305.490287042188
-337.577367031231 258.378500229433 305.834773729315
-337.587204144259 258.348913797885 306.513909990542
-337.606878370313 258.339076684858 306.858396677669
-337.537981032888 258.437522907598 307.51785871284
-337.577367031231 258.368663116406 307.862345399967
-337.331289020612 258.683600918218 308.403686986343
-337.685612820766 258.75246070941 300.745344309505
-337.675775707739 258.75246070941 308.433198325426
-337.272228796214 259.707186320338 308.492258549824
-337.469083695463 259.963101443985 300.755181422532
-337.577367031231 259.835143882162 308.502095662851
-337.577367031231 260.28795145129 300.715832970422
-337.282065909241 261.145056856602 300.784730307848
-337.410023471065 260.987587955696 308.541481661194
-337.616715483341 261.686398442978 300.715832970422
-337.370675018955 261.489581089962 300.755181422532
-337.488757921518 261.351786415111 308.492258549824
-337.715161706082 262.050596902393 300.686284085107
-337.606878370313 262.188391577243 300.961873434808
-337.47892080849 261.853779549377 301.32603434799
-337.508469693806 262.296674913012 308.620216111647
-337.469083695463 262.365534704204 308.954865685747
-337.262391683186 353.975940092984 297.822107252322
-337.370675018955 355.098835281203 297.891004589747
-337.47892080849 355.394136403192 297.871330363692
-337.715161706082 355.955152215623 297.802433026267
-337.341126133639 356.772083151701 297.822107252322
-337.577367031231 357.342936077159 297.753209914897
-337.646264368656 358.081132562783 301.030770772234
-337.577367031231 358.150029900209 301.306360121935
-337.577367031231 358.140192787181 301.926436158764
-337.577367031231 358.150029900209 302.251248619836
-337.508469693806 358.218927237634 302.831938658322
-337.508469693806 358.228764350662 303.452052241384
-337.272228796214 358.474842361281 297.753209914897
-337.43957235638 358.28782457506 303.766990043195
-337.43957235638 358.28782457506 304.377228966997
-337.43957235638 358.297661688087 304.997305003825
-337.587204144259 358.553576811734 305.313143915227
-337.370675018955 358.770105937037 297.703986803526
-337.301777681529 358.858677500518 305.470612816133
-337.685612820766 359.27206152507 297.684312577471
-337.626552596368 359.331121749468 305.450938590078
-337.282065909241 360.07915534812 297.684312577471
-337.272228796214 360.088992461148 305.470612816133
-337.410023471065 360.37445647011 297.684312577471
-337.301777681529 360.472865146618 305.411552591735
-337.616715483341 360.955146508596 297.595741013991
-337.410023471065 360.778003381635 298.786669976278
-337.626552596368 360.955146508596 305.401715478708
-337.311614794557 361.673668768165 297.664638351416
-337.577367031231 361.821300556044 297.684312577471
-337.331289020612 362.07721567969 305.382041252653
-337.508469693806 362.283907691966 305.332818141282
-337.518306806833 362.274033032706 305.962731291138
-337.016313672567 254.667881121489 300.833915872985
-337.065536783938 255.100939372096 300.774855648587
-336.96712810743 256.183622544848 300.843752986013
-337.124597008336 256.478886120604 300.784730307848
-336.927742109087 257.669777536658 300.824078759958
-337.075373896965 257.974953317908 300.824078759958
-337.124597008336 258.427685794571 303.707929818797
-337.124597008336 258.427685794571 304.042579392897
-337.163983006679 258.378500229433 304.387066080024
-337.163983006679 258.388337342461 305.066202341251
-337.05569967091 258.506457791257 305.352492367337
-337.05569967091 258.526132017312 306.021791515536
-337.104922782281 258.457197133653 306.405664201006
-337.085211009993 258.476871359708 307.04541446389
-337.075373896965 258.476871359708 307.38006403799
-337.065536783938 258.486708472736 308.069037412244
-336.927742109087 258.663926692162 308.334789648918
-336.917904996059 259.156007620935 308.561155887249
-336.829333432579 259.254453843676 300.824078759958
-337.124597008336 259.382411405499 308.541481661194
-337.124597008336 259.86473031371 300.745344309505
-336.849007658634 260.691498362815 300.824078759958
-336.996639446512 260.504443030361 308.570993000277
-336.898230770004 261.095871291464 300.755181422532
-337.144271234391 260.78986949309 308.561155887249
-336.937579222114 261.548603768127 301.650846809063
-336.789947434236 261.715984874526 308.610378998619
-336.799784547264 261.706072669033 309.624164833946
-336.780110321209 262.208065803298 301.158728334057
-336.878518997716 262.070271128448 308.551318774222
-337.05569967091 262.345860478149 308.826908123923
-337.05569967091 353.779085193735 297.822107252322
-336.917904996059 354.330263893138 297.979576153228
-337.144271234391 354.910991477857 297.891004589747
-336.789947434236 355.679562865921 297.959901927173
-336.898230770004 355.974826441678 297.940227701118
-337.104922782281 356.565391139424 297.831944365349
-336.858844771661 357.667748538231 297.841781478377
-337.036025444855 357.894114776562 297.822107252322
-337.193494345761 358.140192787181 300.922524982698
-337.134434121363 358.179541239291 301.522889247239
-337.193494345761 358.140192787181 301.857538821339
-337.075373896965 358.238601463689 302.457940632112
-337.065536783938 358.248438576717 303.078016668941
-337.05569967091 358.268150349005 302.743367094842
-337.036025444855 358.297661688087 303.353606018643
-336.996639446512 358.327210573403 303.973682055472
-336.96712810743 358.346884799457 304.268983177461
-336.96712810743 358.356721912485 304.908733440345
-337.085211009993 358.642148375214 305.470612816133
-336.878518997716 358.858677500518 300.361471624035
-336.947416335142 359.596873986142 297.733535688842
-336.858844771661 359.291773297358 297.822107252322
-336.760436095154 359.390181973866 305.539510153558
-337.124597008336 359.842951996762 297.753209914897
-337.016313672567 359.941360673269 305.470612816133
-336.799784547264 360.974820734651 297.733535688842
-336.780110321209 361.004369619966 305.490287042188
-337.124597008336 361.457102096629 297.684312577471
-336.849007658634 361.742566105591 298.176431052477
-336.986802333485 361.60477143074 305.401715478708
-337.075373896965 361.909872119524 297.871330363692
-337.213168571816 361.781914557701 305.401715478708
-336.96712810743 362.421702366817 305.539510153558
-336.898230770004 362.50043681727 305.81509950326
-336.258442960888 254.116627329619 300.843752986013
-336.386400522711 254.470988676007 300.76501853556
-336.366726296656 255.465062739045 300.892976097383
-336.740724322866 255.967055873311 300.833915872985
-336.524195197562 257.197370833941 300.853627645273
-336.67182698544 257.512308635753 300.833915872985
-336.347052070601 258.388337342461 300.892976097383
-336.622641420303 258.565480469422 303.629195368344
-336.258442960888 258.496620678229 304.200048293803
-336.258442960888 258.496620678229 304.534697867902
-336.278154733176 258.486708472736 304.869347442002
-336.691538757728 258.476871359708 305.332818141282
-336.661989872413 258.496620678229 305.972568404166
-336.691538757728 258.467034246681 306.346603976608
-336.67182698544 258.476871359708 306.986354239492
-336.652152759385 258.516294904284 307.311166700564
-336.652152759385 258.506457791257 308.000140074818
-336.573418308932 258.614666034559 308.27572942452
-336.445460747109 258.772210027931 300.843752986013
-336.386400522711 258.831232706096 308.541481661194
-336.534032310589 260.091059005808 300.892976097383
-336.376563409684 259.805632543079 308.639890337702
-336.593092534987 260.484768804306 300.824078759958
-336.711212983783 260.356811242482 308.600541885592
-336.415949408027 261.204154627233 301.946147931052
-336.455297860136 261.154893969629 308.679276336045
-336.307666072258 261.341949302083 300.892976097383
-336.514358084534 261.558440881154 308.610378998619
-336.307666072258 261.794681778746 300.824078759958
-336.307666072258 262.296674913012 301.030770772234
-336.278154733176 262.345860478149 308.679276336045
-336.642315646358 262.365534704204 308.797396784841
-336.317503185286 354.13340899389 297.891004589747
-336.347052070601 354.920828590885 298.038636377626
-336.553744082877 355.512219305755 297.959901927173
-336.415949408027 356.900040713524 297.891004589747
-336.711212983783 357.411833414584 297.841781478377
-336.711212983783 358.228764350662 301.394931685416
-336.465134973164 358.484679474308 297.891004589747
-336.661989872413 358.277987462032 301.089830996632
-336.297828959231 358.258313235977 301.32603434799
-336.652152759385 358.28782457506 301.99533349619
-336.661989872413 358.277987462032 302.329983070289
-336.652152759385 358.297661688087 302.950059107118
-336.534032310589 358.405945023855 303.511074919549
-336.534032310589 358.405945023855 303.835887380621
-336.534032310589 358.405945023855 304.446126304422
-336.534032310589 358.405945023855 304.790612991549
-336.366726296656 358.583088150816 305.332818141282
-336.484846745452 358.868552159778 297.822107252322
-336.386400522711 358.947286610231 305.559184379613
-336.445460747109 360.128378459491 297.822107252322
-336.347052070601 360.226787135999 305.549347266586
-336.524195197562 360.453190920563 297.772884140952
-336.504520971507 360.482702259645 305.539510153558
-336.347052070601 361.850811895126 297.703986803526
-336.691538757728 361.900035006496 297.822107252322
-336.366726296656 361.840974782098 305.490287042188
-336.652152759385 362.352805029392 305.470612816133
-336.534032310589 362.470887931955 306.011954402509
-336.071462720899 254.864698474504 300.961873434808
-336.110811173009 255.278082499057 300.892976097383
-335.805710484225 256.134361887244 300.961873434808
-335.982853611186 256.400114123918 300.961873434808
-336.228931621805 257.079250385145 300.843752986013
-336.002565383474 257.837158643058 300.961873434808
-336.002565383474 258.32923957183 300.883138984355
-335.874607821651 258.486708472736 304.17053695472
-335.82538471028 258.545806243367 304.465800530477
-335.805710484225 258.585154695477 304.790612991549
-335.805710484225 258.585154695477 305.470612816133
-335.766324485882 258.614666034559 305.81509950326
-335.77616159891 258.604828921532 306.474561538432
-335.785998711937 258.594991808504 306.819048225559
-335.845058936335 258.516294904284 307.51785871284
-335.756487372855 258.63441535308 307.793448062542
-336.091136946954 258.7131122573 308.482421436796
-335.805710484225 259.047799377632 308.689113449072
-335.894282047706 259.402085631554 300.961873434808
-335.963179385131 259.343062953389 308.679276336045
-336.179708510435 260.022199214616 300.853627645273
-335.854896049363 260.425746126141 308.74817367347
-335.953342272104 260.799706606117 300.961873434808
-335.845058936335 260.918728164503 302.251248619836
-336.179708510435 260.987587955696 308.679276336045
-335.933668046049 262.247414255408 301.316197234963
-335.82538471028 261.922639340569 308.689113449072
-335.894282047706 262.296674913012 300.961873434808
-335.766324485882 262.44430670089 308.954865685747
-335.874607821651 262.316349139067 309.309189485901
-335.904119160733 354.153120766177 298.087859488996
-336.091136946954 354.379487004509 298.097696602024
-335.785998711937 355.482707966673 298.097696602024
-336.022239609529 356.083109777446 298.028799264598
-336.140360058325 356.358699127148 297.959901927173
-335.766324485882 357.14608117791 298.038636377626
-335.953342272104 357.392159188529 298.009125038543
-335.963179385131 357.766157214739 297.959901927173
-336.238768734833 358.307498801115 297.891004589747
-335.805710484225 358.346884799457 301.178402560112
-336.20925739575 358.346884799457 301.591786584665
-335.756487372855 358.3862707978 301.778804370886
-336.179708510435 358.366559025513 302.536675082565
-336.16003428438 358.3862707978 302.822101545295
-336.120648286037 358.42561924991 303.432340469096
-336.110811173009 358.455168135226 303.766990043195
-336.002565383474 358.543739698706 304.318168742599
-336.022239609529 358.533902585679 304.948081892455
-335.963179385131 358.592962810077 305.263920803857
-335.805710484225 359.163815735535 297.891004589747
-336.169871397407 358.779943050065 305.539510153558
-335.963179385131 359.400019086894 297.891004589747
-335.904119160733 359.459079311292 305.677304828409
-336.179708510435 359.99058378464 297.822107252322
-336.169871397407 360.000420897667 299.662661136753
-336.169871397407 360.000420897667 305.608407490984
-335.963179385131 360.610659821469 305.687141941437
-335.805710484225 360.787840494662 297.822107252322
-336.002565383474 360.994532506939 305.628081717039
-336.110811173009 361.27012185664 297.802433026267
-335.77616159891 361.624445656795 298.570140850974
-336.091136946954 361.30947030875 305.549347266586
-335.756487372855 362.047666794375 297.891004589747
-335.766324485882 362.4512137059 305.539510153558
-336.120648286037 362.490599704243 305.943057065083
-335.756487372855 362.864597730452 306.080851739934
-335.510409362236 254.549760672693 300.922524982698
-335.7368131468 254.766252251764 300.952036321781
-335.480898023153 255.573346074814 301.030770772234
-335.530121134524 255.967055873311 300.961873434808
-335.284043123904 256.764312583333 301.050444998289
-335.530121134524 257.433611731533 300.961873434808
-335.412000685728 258.575317582449 301.030770772234
-335.274206010877 258.742623596382 303.973682055472
-335.303717349959 258.693438031245 304.308331629571
-335.392326459673 258.585154695477 305.026853889141
-335.392326459673 258.585154695477 305.352492367337
-335.35294046133 258.63441535308 306.011954402509
-335.323429122247 258.663926692162 306.346603976608
-335.323429122247 258.663926692162 307.025740237835
-335.35294046133 258.63441535308 307.370226924962
-335.35294046133 258.624503147587 308.019814300873
-335.293880236932 258.703275144272 308.334789648918
-335.490735136181 258.949353154892 300.971710547836
-335.461223797098 258.998538720029 308.669439223017
-335.284043123904 259.667837868228 308.797396784841
-335.284043123904 260.159993889467 300.991422320124
-335.392326459673 260.012362101588 308.74817367347
-335.530121134524 260.337137016427 300.971710547836
-335.461223797098 260.425746126141 302.605572419991
-335.323429122247 261.558440881154 300.991422320124
-335.461223797098 261.391134867221 308.74817367347
-335.431674911783 261.893128001487 300.961873434808
-335.392326459673 262.434469587863 301.158728334057
-335.392326459673 262.44430670089 308.826908123923
-335.530121134524 354.13340899389 298.038636377626
-335.421837798755 354.664913467238 298.176431052477
-335.510409362236 354.970915265612 298.156756826421
-335.343103348302 356.378373353203 298.087859488996
-335.599018471949 356.919714939579 298.028799264598
-335.284043123904 358.081132562783 298.028799264598
-335.362777574357 358.37639613854 297.979576153228
-335.284043123904 358.465005248253 301.375257459361
-335.7368131468 358.42561924991 302.074067946643
-335.254531784822 358.504353700363 302.605572419991
-335.638366924059 358.514190813391 302.999282218488
-335.648204037087 358.504353700363 303.294545794245
-335.628529811032 358.524065472651 303.904784718046
-335.559632473606 358.592962810077 304.515023641847
-335.559632473606 358.592962810077 304.810287217604
-335.500572249208 358.651985488242 305.411552591735
-335.687590035429 358.868552159778 297.959901927173
-335.284043123904 358.888226385833 305.618244604011
-335.303717349959 359.685483095856 297.959901927173
-335.480898023153 359.508302422662 300.213839836156
-335.293880236932 359.695320208883 305.746202165835
-335.372614687385 360.000420897667 297.959901927173
-335.323429122247 360.049644009038 305.696979054464
-335.510409362236 360.266173134342 297.891004589747
-335.500572249208 360.285847360397 305.677304828409
-335.254531784822 360.551599597071 305.874159727658
-335.599018471949 360.984695393911 305.834773729315
-335.323429122247 361.703180107248 297.841781478377
-335.35294046133 361.663794108905 305.657630602354
-335.530121134524 361.890197893469 297.822107252322
-335.530121134524 361.870486121181 305.618244604011
-335.530121134524 362.707128829546 305.746202165835
-335.530121134524 362.687417057258 306.041465741591
-335.224982899507 254.402128884814 300.922524982698
-334.791924648899 254.933558265697 301.060319657549
-335.185634447397 255.425714286935 301.030770772234
-334.939556436777 256.21313388393 301.109505222687
-335.008453774203 256.606843682428 301.060319657549
-335.047839772546 258.004464656991 301.089830996632
-335.116737109971 258.447360020626 301.030770772234
-334.890333325407 258.703275144272 303.924458944101
-334.939556436777 258.654089579135 304.308331629571
-334.910045097695 258.693438031245 304.9284076664
-334.959230662832 258.614666034559 305.313143915227
-334.890333325407 258.7131122573 305.943057065083
-334.949393549805 258.63441535308 306.28754375221
-334.910045097695 258.693438031245 306.95684290041
-334.939556436777 258.663926692162 307.311166700564
-334.910045097695 258.683600918218 307.950916963448
-334.88049621238 258.7131122573 308.27572942452
-334.801761761927 258.821395593068 308.561155887249
-334.870659099352 259.224942504593 308.817071010896
-334.821435987982 259.274128069731 301.099668109659
-335.067513998601 259.451346289157 308.817071010896
-335.156085562081 259.815469656107 301.030770772234
-334.998616661175 260.012362101588 302.950059107118
-334.772250422844 260.297788564317 308.885968348321
-334.998616661175 260.987587955696 301.060319657549
-335.047839772546 260.928565277531 308.797396784841
-335.077351111628 261.361623528138 301.030770772234
-335.146248449054 261.282851531453 308.74817367347
-334.772250422844 262.217902916326 301.089830996632
-335.215145786479 262.158880238161 301.532726360267
-334.860821986324 262.109619580558 308.817071010896
-334.998616661175 262.414795361808 301.099668109659
-334.97894243512 262.434469587863 308.797396784841
-334.811598874954 262.631286940878 309.368249710299
-334.791924648899 354.09406054178 298.215817050819
-335.008453774203 354.261366555713 298.186305711737
-334.791924648899 355.305527293479 298.225654163847
-335.067513998601 355.837031766827 298.156756826421
-334.801761761927 356.949226278661 298.156756826421
-334.84114776027 357.293750512021 298.107533715051
-335.116737109971 357.835054552164 298.048473490653
-334.84114776027 358.524065472651 298.117370828079
-334.821435987982 358.543739698706 301.23746278451
-334.870659099352 358.514190813391 301.581949471637
-334.84114776027 358.524065472651 301.857538821339
-334.772250422844 358.602799923104 302.46777774514
-334.752538650556 358.622474149159 302.753204207869
-335.165922675109 358.583088150816 303.501237806521
-335.136411336026 358.622474149159 303.816213154566
-335.097025337683 358.651985488242 304.406777852312
-335.067513998601 358.691371486585 305.01697922988
-334.801761761927 358.957123723259 298.038636377626
-334.97894243512 358.779943050065 305.283595029912
-335.067513998601 359.527976648717 297.9697390402
-334.92971932375 359.262224412043 305.76587639189
-334.821435987982 360.571273823126 298.009125038543
-334.860821986324 360.541762484043 305.81509950326
-334.998616661175 360.807514720717 297.959901927173
-335.215145786479 361.388204759203 297.891004589747
-334.84114776027 362.185461469226 297.959901927173
-334.821435987982 362.205135695281 305.72652793978
-335.165922675109 362.254358806651 297.979576153228
-334.959230662832 362.461050818927 305.677304828409
-335.097025337683 362.726803055601 305.962731291138
-334.811598874954 363.022066631358 306.14974907736
-334.585232636623 254.717066686626 301.040607885261
-334.50649818617 255.770238520295 301.14889122103
-334.339154626004 256.941455710294 301.168565447085
-334.417889076457 257.325328395764 301.14889122103
-334.703353085419 257.965116204881 301.040607885261
-334.486786413882 258.703275144272 304.515023641847
-334.50649818617 258.683600918218 305.519835927503
-334.4572750748 258.742623596382 306.14974907736
-334.467112187827 258.722949370327 306.838722451614
-334.476949300855 258.703275144272 308.206832087094
-334.4572750748 258.732786483355 308.502095662851
-334.417889076457 258.782047140958 301.109505222687
-334.437600848745 258.75246070941 304.131150956377
-334.4572750748 258.75246070941 304.800450104576
-334.437600848745 258.772210027931 305.81509950326
-334.437600848745 258.75246070941 306.494235764487
-334.437600848745 258.75246070941 307.163534912686
-334.388377737374 258.811558480041 307.458798488442
-334.437600848745 258.75246070941 307.813122288597
-334.299806173894 258.929678928837 308.758010786498
-334.604906862678 259.530043193377 303.314257566533
-334.270257288578 259.923752991875 301.168565447085
-334.388377737374 259.795795430052 308.905642574376
-334.388377737374 260.278114338262 301.14889122103
-334.703353085419 260.848967263721 301.060319657549
-334.368703511319 261.735659100581 301.109505222687
-334.348991739031 261.273014418425 308.954865685747
-334.50649818617 262.06043401542 301.099668109659
-334.54584663828 262.001411337255 301.778804370886
-334.673804200103 261.843942436349 308.885968348321
-334.50649818617 262.52300360511 301.306360121935
-334.467112187827 262.582101375741 308.954865685747
-334.398214850402 262.660798279961 309.250129261503
-334.585232636623 354.714136578608 298.3043886143
-334.575395523595 355.118547053491 298.225654163847
-334.388377737374 356.142170001844 298.284714388245
-334.486786413882 356.427596464573 298.225654163847
-334.270257288578 357.894114776562 298.166593939449
-334.50649818617 358.455168135226 298.087859488996
-334.388377737374 358.592962810077 301.453991909814
-334.348991739031 358.622474149159 301.768967257858
-334.329317512976 358.642148375214 302.389043294687
-334.299806173894 358.691371486585 302.969733333173
-334.683641313131 358.691371486585 303.353606018643
-334.644292861021 358.730757484927 304.259108518201
-334.644292861021 358.730757484927 304.908733440345
-334.624581088733 358.76026882401 303.973682055472
-334.604906862678 358.770105937037 305.195023466431
-334.604906862678 358.770105937037 305.490287042188
-334.270257288578 359.508302422662 298.117370828079
-334.50649818617 360.098867120408 298.028799264598
-334.408051963429 359.783891772364 305.86432261463
-334.703353085419 360.305559132684 298.028799264598
-334.673804200103 360.335070471767 305.795425277205
-334.280094401606 361.132327181789 298.078022375969
-334.299806173894 361.122490068762 299.318174449626
-334.437600848745 361.378367646176 298.028799264598
-334.526172412225 361.279958969668 305.834773729315
-334.644292861021 361.978769456949 297.940227701118
-334.703353085419 361.919709232551 298.570140850974
-334.663967087076 361.959095230894 305.72652793978
-334.260420175551 362.372479255447 298.078022375969
-334.260420175551 362.795700393027 305.756039278862
-334.230908836468 254.628457576913 301.030770772234
-333.886422149341 255.041841601465 301.23746278451
-334.112788387672 255.268245386029 301.168565447085
-333.925770601451 256.478886120604 301.217788558455
-334.03405393722 256.813498148471 301.168565447085
-333.847036150998 258.014301770018 301.217788558455
-334.053728163275 258.25054266761 301.168565447085
-334.162011499043 258.63441535308 304.131150956377
-334.07340238933 258.732786483355 306.100525965989
-334.043891050247 258.762297822437 304.446126304422
-334.03405393722 258.782047140958 305.085876567306
-334.03405393722 258.772210027931 305.421389704763
-333.984830825849 258.841069819123 306.425338427061
-334.043891050247 258.762297822437 306.769825114188
-334.004505051904 258.811558480041 307.439124262387
-334.043891050247 258.762297822437 308.137934749669
-334.024216824192 258.801721367013 308.423361212398
-333.866710377053 259.431596970637 301.217788558455
-333.925770601451 259.382411405499 303.560298030919
-333.984830825849 259.303639408813 308.954865685747
-333.955319486767 259.825306769134 301.168565447085
-333.817524811916 260.484768804306 308.974539911802
-333.797813039628 260.977750842668 301.217788558455
-333.886422149341 260.8694675069 308.954865685747
-334.162011499043 261.509255316017 301.168565447085
-333.866710377053 261.853779549377 302.015045268477
-333.837199037971 262.365534704204 301.23746278451
-334.132462613727 262.493492266028 301.257137010565
-333.906096375396 262.286837799984 308.935191459692
-334.03405393722 353.218069381304 298.855567313703
-334.063565276302 354.428710115879 298.255203049162
-333.915933488424 355.394136403192 298.314225727327
-334.191522838125 355.945315102596 298.245328389902
-333.866710377053 357.087058499745 298.235491276874
-333.758464587518 356.791757377756 298.294551501272
-334.043891050247 357.303587625049 298.245328389902
-333.856873264026 358.730757484927 298.166593939449
-333.886422149341 358.71104571264 301.306360121935
-333.847036150998 358.740594597955 301.916599045737
-333.856873264026 358.730757484927 302.536675082565
-333.984830825849 358.996472175369 298.166593939449
-333.7879759266 358.799654822353 302.812264432267
-333.7879759266 358.799654822353 303.432340469096
-333.758464587518 358.829166161435 303.766990043195
-334.191522838125 358.799654822353 304.515023641847
-334.132462613727 358.84884038749 304.790612991549
-334.1226255007 358.858677500518 305.401715478708
-333.7879759266 359.203164187645 305.874159727658
-334.093114161617 359.311447523413 305.883996840685
-333.935607714479 360.276010247369 298.156756826421
-333.896259262369 360.315396245712 300.00714782388
-333.886422149341 360.325233358739 305.933219952056
-334.162011499043 360.866574945115 298.087859488996
-334.201359951153 360.817351833745 305.874159727658
-333.817524811916 362.02799256832 298.038636377626
-333.827361924943 362.008318342265 305.824936616288
-333.955319486767 362.283907691966 298.038636377626
-333.856873264026 362.382316368474 298.3043886143
-333.886422149341 362.352805029392 305.795425277205
-334.162011499043 362.894109069535 306.021791515536
-334.043891050247 363.012229518331 306.28754375221
-333.423815013418 254.648131802968 301.23746278451
-333.679730137065 254.835187135422 301.18823967314
-333.463163465528 256.055664983024 301.23746278451
-333.295857451595 255.770238520295 301.28668589588
-333.640344138722 256.321417219699 301.23746278451
-333.413977900391 257.0989246112 301.306360121935
-333.433652126446 257.531982861808 301.23746278451
-333.660018364777 258.732786483355 304.662655429726
-333.660018364777 258.732786483355 305.332818141282
-333.571446801297 258.850906932151 301.306360121935
-333.286020338568 259.195431165511 303.835887380621
-333.61083279964 258.801721367013 304.308331629571
-333.571446801297 258.841069819123 304.97763077777
-333.561609688269 258.850906932151 305.628081717039
-333.61083279964 258.811558480041 305.972568404166
-333.630507025695 258.772210027931 306.346603976608
-333.61083279964 258.801721367013 306.986354239492
-333.61083279964 258.791884253986 307.321003813592
-333.591121027352 258.821395593068 308.000140074818
-333.541935462214 258.880418271233 308.285566537547
-333.413977900391 259.047799377632 308.895805461349
-333.630507025695 259.264290956703 301.23746278451
-333.295857451595 260.130407457918 301.28668589588
-333.433652126446 259.963101443985 309.023763023172
-333.394266128103 260.504443030361 301.23746278451
-333.581283914324 260.278114338262 309.023763023172
-333.27618322554 261.135219743574 309.072986134542
-333.561609688269 261.25334019237 302.448103519085
-333.325368790677 261.538766655099 309.023763023172
-333.492712350844 261.824193117828 301.257137010565
-333.74862747449 262.001411337255 308.974539911802
-333.512386576899 262.277000686957 301.18823967314
-333.689567250093 262.542752923631 301.493377908157
-333.61083279964 262.660798279961 309.102497473625
-333.502549463871 262.769081615729 309.387923936354
-333.443489239473 354.65507635421 298.432346176123
-333.591121027352 354.920828590885 298.363448838698
-333.394266128103 355.935477989568 298.392997724013
-333.413977900391 356.319313128805 298.35361172567
-333.325368790677 357.638237199148 298.3043886143
-333.61083279964 358.179541239291 298.235491276874
-333.394266128103 357.972849227015 298.284714388245
-333.69940436312 358.484679474308 298.225654163847
-333.374591902048 359.23271307296 298.284714388245
-333.74862747449 359.242550185988 300.853627645273
-333.413977900391 358.799654822353 301.513052134212
-333.433652126446 358.76026882401 301.847701708311
-333.384429015075 358.819329048408 302.448103519085
-333.345080562965 358.84884038749 303.028793557571
-333.295857451595 358.907900611888 303.343768905615
-333.31553167765 358.878389272806 303.973682055472
-333.305694564623 358.898063498861 304.268983177461
-333.660018364777 358.937449497204 304.938244779427
-333.679730137065 358.927574837943 305.263920803857
-333.492712350844 359.104755511137 305.81509950326
-333.463163465528 359.537813761744 298.245328389902
-333.36475478902 359.636259984485 306.002117289481
-333.591121027352 359.833114883734 298.176431052477
-333.541935462214 359.882300448872 305.943057065083
-333.325368790677 360.915798056486 298.186305711737
-333.345080562965 360.896086284198 305.972568404166
-333.374591902048 361.260284743613 298.156756826421
-333.36475478902 361.279958969668 305.933219952056
-333.630507025695 361.801588783756 298.087859488996
-333.620669912667 361.811463443016 305.86432261463
-333.354917675993 362.50043681727 298.156756826421
-333.482875237816 362.362642142419 298.511080626576
-333.27618322554 362.589008380751 305.874159727658
-333.413977900391 362.854760617425 305.874159727658
-332.793901863562 254.933558265697 301.355583233306
-332.8430874287 255.346942290249 301.306360121935
-332.754515865219 256.429625463001 301.375257459361
-333.148225663717 256.921781484239 301.316197234963
-332.793901863562 257.846995756085 301.375257459361
-332.862799200988 258.260379780638 301.306360121935
-333.207285888115 258.821395593068 301.23746278451
-333.148225663717 258.870581158206 304.239434292146
-332.764352978247 258.860744045178 304.465800530477
-333.177737002799 258.841069819123 304.9284076664
-333.167899889772 258.850906932151 305.263920803857
-332.754515865219 258.880418271233 305.81509950326
-333.177737002799 258.841069819123 306.582807327967
-333.167899889772 258.850906932151 306.907619789039
-333.167899889772 258.850906932151 307.586756050266
-333.148225663717 258.870581158206 307.931242737393
-333.138388550689 258.890255384261 308.256055198465
-332.951370764468 259.116659168825 308.817071010896
-332.94153365144 259.589140964008 301.32603434799
-332.754515865219 259.352900066417 309.092660360597
-333.079328326291 259.923752991875 301.306360121935
-333.158062776744 259.825306769134 309.023763023172
-332.872636314015 260.632400592184 309.092660360597
-332.793901863562 261.233665966315 301.306360121935
-333.108839665374 260.848967263721 302.792590206212
-333.069491213264 260.899053938449 309.102497473625
-333.069491213264 261.371460641166 301.306360121935
-332.823413202645 262.149043125133 309.092660360597
-332.89231054007 262.542752923631 301.32603434799
-333.020268101893 262.385208930259 309.072986134542
-333.039942327948 262.847853612415 309.309189485901
-333.158062776744 354.55663013147 298.363448838698
-333.246634340225 354.861768366487 298.028799264598
-332.80373897659 354.930665703912 298.501243513549
-333.148225663717 355.374424630904 298.461895061439
-332.862799200988 356.496493801999 298.461895061439
-332.89231054007 356.870491828208 298.432346176123
-333.158062776744 357.421670527612 298.363448838698
-332.872636314015 358.514190813391 298.363448838698
-333.049779440976 358.76026882401 298.294551501272
-332.793901863562 359.026021060684 301.306360121935
-332.94153365144 358.868552159778 301.985496383162
-332.971044990523 358.839003274463 302.329983070289
-332.931696538413 358.888226385833 302.930384881063
-332.862799200988 358.957123723259 303.501237806521
-332.793901863562 359.026021060684 303.78666426925
-332.793901863562 359.026021060684 304.406777852312
-333.207285888115 358.996472175369 304.859510328974
-333.187574115827 359.016183947657 305.470612816133
-332.872636314015 359.340958862496 305.943057065083
-332.80373897659 359.823277770707 298.324100386588
-332.80373897659 360.226787135999 306.031628628564
-333.079328326291 360.748454496319 298.215817050819
-333.108839665374 360.335070471767 298.284714388245
-333.010430988866 360.423642035247 306.011954402509
-332.774190091274 361.476813868916 306.021791515536
-332.793901863562 361.870486121181 298.215817050819
-332.862799200988 361.801588783756 306.011954402509
-333.079328326291 362.382316368474 298.156756826421
-332.911984766125 362.53978526938 298.373285951725
-333.138388550689 362.323256144076 305.943057065083
-332.813576089617 363.061452629701 305.972568404166
-333.167899889772 363.100801081811 306.376115315691
-332.459252289463 254.845024248449 301.32603434799
-332.272234503241 255.563508961786 301.444154796786
-332.331294727639 255.967055873311 301.375257459361
-332.400192065065 257.345002621819 301.394931685416
-332.321457614612 258.910004702782 301.394931685416
-332.626558303396 259.028050059112 304.062253618952
-332.311620501584 258.919841815809 304.387066080024
-332.311620501584 258.929678928837 305.066202341251
-332.282071616269 258.949353154892 305.401715478708
-332.262397390214 258.988701607002 306.041465741591
-332.291908729296 258.949353154892 306.405664201006
-332.291908729296 258.939516041864 306.750150888133
-332.311620501584 258.929678928837 307.734387838144
-332.291908729296 258.939516041864 308.069037412244
-332.291908729296 258.939516041864 308.403686986343
-332.675781414766 258.969027380947 308.797396784841
-332.626558303396 259.500531854295 301.316197234963
-332.252560277186 259.94342721793 309.161557698023
-332.321457614612 260.337137016427 301.375257459361
-332.616721190368 260.484768804306 303.087853781969
-332.597046964313 260.504443030361 309.102497473625
-332.744678752192 260.799706606117 301.375257459361
-332.291908729296 261.341949302083 309.161557698023
-332.272234503241 261.863616662404 301.385094572388
-332.636395416423 261.902965114514 309.092660360597
-332.606884077341 262.414795361808 301.32603434799
-332.321457614612 262.759244502702 301.522889247239
-332.311620501584 262.778918728757 309.210780809393
-332.252560277186 262.857690725443 309.496207272122
-332.528149626888 354.802708142089 298.501243513549
-332.262397390214 355.4925450797 298.570140850974
-332.321457614612 355.817357540772 298.520917739604
-332.597046964313 356.358699127148 298.452020402178
-332.350968953694 357.431545186872 298.491406400521
-332.587209851286 358.012235225358 298.392997724013
-332.725004526137 358.268150349005 298.363448838698
-332.321457614612 359.09491839811 298.422509063096
-332.46908940249 358.937449497204 301.581949471637
-332.449415176435 358.957123723259 301.877250593627
-332.46908940249 358.937449497204 302.526837969538
-332.38051783901 359.035858173712 302.80242731924
-332.311620501584 359.104755511137 303.373280244698
-332.350968953694 359.055532399767 304.042579392897
-332.282071616269 359.13426685022 304.308331629571
-332.311620501584 359.114592624165 304.9284076664
-332.262397390214 359.153978622507 305.539510153558
-332.488763628545 359.331121749468 298.363448838698
-332.55766096597 359.262224412043 305.874159727658
-332.449415176435 359.783891772364 300.755181422532
-332.744678752192 359.882300448872 306.080851739934
-332.321457614612 360.728780270264 298.363448838698
-332.291908729296 360.748454496319 306.110363079017
-332.459252289463 361.004369619966 298.294551501272
-332.291908729296 361.171675633899 299.761107359494
-332.459252289463 360.994532506939 306.080851739934
-332.725004526137 361.535874093314 298.225654163847
-332.518312513861 361.329182081038 298.255203049162
-332.537986739915 361.299633195723 306.031628628564
-332.734841639164 361.929546345579 299.121319550377
-332.498600741573 362.579171267723 298.245328389902
-332.400192065065 362.687417057258 298.511080626576
-332.331294727639 362.342930370131 306.071014626907
-332.547823852943 362.92365795485 305.962731291138
-332.636395416423 363.238633302895 306.513909990542
-331.858850478689 255.110776485124 301.463829022841
-331.927747816114 255.4847369651 301.444154796786
-332.006482266567 256.862758806074 301.444154796786
-331.878524704744 257.984790430936 301.513052134212
-331.957259155197 258.368663116406 301.444154796786
-331.809627367318 259.047799377632 304.239434292146
-331.888361817771 258.959190267919 304.613469864588
-331.908073590059 258.939516041864 304.97763077777
-331.839176252634 259.018212946084 305.263920803857
-331.849013365661 259.008375833057 305.943057065083
-331.839176252634 259.028050059112 306.277706639183
-331.819464480346 259.047799377632 306.917456902067
-331.819464480346 259.037887172139 307.261943589194
-331.839176252634 259.028050059112 307.931242737393
-331.839176252634 259.008375833057 308.27572942452
-331.789953141263 259.087147829742 308.905642574376
-331.770278915208 259.579228758515 301.463829022841
