# .PCD v.7 - Point Cloud Data file format
VERSION .7
FIELDS x y z
SIZE 4 4 4
TYPE F F F
COUNT 1 1 1
WIDTH 858
HEIGHT 1
VIEWPOINT 0 0 0 1 0 0 0
POINTS 858
DATA ascii
-28.3708332005229 -60.2767954019109 -38.1120085957554
-28.4576296695158 -60.3996231112368 -38.3431857776575
-28.4424119009707 -60.4631813189339 -38.6422439081076
-28.4946305278635 -60.6119188266238 -38.8472145178759
-28.4526875396036 -60.670048967249 -39.0755402576984
-28.4406283624357 -60.7858028826 -39.2780325260747
-28.4763464938913 -60.8892518820841 -39.3561665063054
-28.4010242523577 -60.9693037491581 -39.5530664115676
-28.4290858720636 -61.0747570138336 -39.6179948105464
-28.3374493486778 -61.1630808032296 -39.7946915872069
-28.3345814586665 -61.3189574449445 -39.8902126727193
-28.2284913336026 -61.4117055070169 -40.0432511784492
-28.2404821178188 -61.5236866268357 -40.0850640528026
-28.1906362594561 -61.6155282434929 -40.1553473480504
-28.2835968254082 -61.6986050887179 -40.1143634424971
-28.2577513102102 -61.8664154320164 -40.181991377025
-28.0737882602019 -62.0541676210261 -40.3486955779803
-28.0047000083654 -62.2796574732051 -40.4336765152238
-27.868427865554 -62.3773675015768 -40.5288304848925
-27.7924611901713 -62.4894577737713 -40.5806570872532
-27.6994472694244 -62.4066371023939 -40.6220292896543
-27.4811265843531 -62.6086074065083 -40.7398352641947
-28.0718563856778 -61.7003387552709 -40.2641707199764
-27.9808539016215 -61.9711677895056 -40.3898910153783
-27.8187517290381 -62.1138369703071 -40.5162441550229
-27.7754139448071 -62.2945468301994 -40.5702026872936
-27.3938813036211 -62.9473978762457 -40.801597913116
-27.6674115630081 -62.7738595709163 -40.6568960631024
-28.3334426837709 -61.6067634720606 -40.0440801472493
-28.4144796988694 -61.5778291416811 -39.9613746268441
-28.4276092579813 -61.4020042343838 -39.8493200266675
-28.5235941946682 -61.329090956266 -39.712941113086
-28.5222029187393 -61.1577203774307 -39.5771369824771
-28.5873332021604 -61.1351305712188 -39.4713206019676
-28.5695383970183 -60.9721153405478 -39.3152785247747
-28.6270735762542 -60.9514155172864 -39.1961677207256
-28.6392316861294 -60.8354289634099 -38.9934360994243
-28.5879213636979 -60.694549646562 -38.8060871834202
-28.629000950781 -60.628334923188 -38.5597915494222
-28.5509278834917 -60.4821458955527 -38.3018607534279
-28.55735579883 -60.4416889545896 -38.0288914202084
-28.4476542336211 -60.298820058447 -37.7065744488999
-28.4195073769893 -60.2678040194091 -37.3747459727453
-28.3018018522397 -60.1684681187654 -37.1207993945552
-28.279630579818 -60.1648016674784 -36.8566163222429
-28.1743653397315 -60.0935953398963 -36.6863679018829
-28.1688821906228 -60.1096166722119 -36.4986736888302
-28.035160040267 -60.0346242930302 -36.2570634645136
-27.9601509721162 -60.036863481625 -35.8860305706536
-27.5648435258801 -59.905780535384 -34.9462230412286
-27.3660523836229 -59.9014154877474 -34.2843420602912
-27.696519320481 -59.8740326778538 -35.5930528552621
-27.2342750308682 -63.1690646295576 -40.8830489591119
-27.0648401797589 -63.1895175406272 -40.9577441007224
-26.9709806850096 -63.419084800712 -40.9952274251245
-26.8076936910427 -63.533314071098 -41.0625228050466
-26.7767183754313 -63.677509485459 -41.0718093669014
-26.6850393449164 -63.7976965916284 -41.1044362700495
-26.9323359821823 -63.6739333925198 -40.9995784955208
-26.7871972984652 -63.8632361871499 -41.0493120218186
-26.7068453525822 -63.9674652846493 -41.0757091436021
-26.3007988718057 -64.2981239369683 -41.2346467250246
-26.1599018651743 -64.3784364536019 -41.2849220922566
-26.5591975296923 -63.8602067398378 -41.1531897044712
-26.4609453165204 -64.09039466079 -41.1820471597056
-26.3337084189161 -64.1537304398854 -41.2293075148869
-26.086130527346 -64.5746350262629 -41.3013072593469
-25.8780287246703 -64.7410453577077 -41.3715241432649
-25.7897284771705 -64.9552490475422 -41.3910142233768
-25.6212185699299 -65.0701196432891 -41.4478618622289
-25.5190151619911 -65.3018029104304 -41.4708187592161
-25.3642917046294 -65.3988709421185 -41.5232971826847
-25.3295543742803 -65.5441899626079 -41.5263704846975
-25.1884895184976 -65.6239014961956 -41.5750774106242
-25.0312330369567 -65.9267639448599 -41.6156576100565
-24.8229218757658 -66.0928611125813 -41.6847836852826
-24.6615867104914 -66.3003489380138 -41.7342370920203
-24.5603840591741 -66.5324118484972 -41.760192430084
-24.3952482899279 -66.6444165520523 -41.8189278561352
-24.3612284320326 -66.7900470651371 -41.8242287958755
-24.2225831711813 -66.8685954587001 -41.8760583627003
-24.06461690931 -67.0750292073601 -41.9309808210757
-23.9248244621765 -67.465645699201 -41.9776104692919
-23.6431555467877 -67.7327560630161 -42.0824502904396
-23.4886959867812 -67.9378601157138 -42.1426044224047
-24.4984450334006 -66.92678747862 -41.7818073788266
-24.7768827413853 -66.4576225932161 -41.6833481637856
-26.4161866996549 -64.4414922031041 -41.1563880078083
-25.9363688810501 -64.968349428084 -41.331710756321
-25.7207843055365 -65.2452647838901 -41.3971170854032
-24.896043316536 -66.3035449586836 -41.645178062459
-25.2055571290441 -65.9053848804789 -41.5500966491691
-25.4228164328458 -65.6266326429064 -41.4848054780912
-25.5311353844716 -65.4880531282192 -41.4530424658205
-27.0240150126972 -63.5537462863504 -40.9669515923728
-27.140415536119 -63.3986318896423 -40.920532283514
-23.4077345256535 -68.1492244290971 -42.1741740154556
-23.116635577367 -68.335852476907 -42.3054122236073
-23.0120878778607 -68.6873308844796 -42.3535118883802
-22.682148836715 -69.1453145573404 -42.5213978254075
-22.5855939826085 -69.4949428057354 -42.5837633689174
-22.3482461201454 -69.7215470495504 -42.7089693060265
-22.1714479573734 -69.980749095082 -42.8262801556268
-22.0781388911017 -69.8983717611846 -42.8678692713325
-21.8521024361312 -70.1214767611518 -43.0090312680393
-22.3990047254647 -69.3301466051058 -42.6669240293106
-22.2549370538736 -69.6391697156529 -42.7505584217322
-21.5698483399252 -70.6564827222443 -43.2307393712915
-21.3443474296159 -70.8928483617192 -43.3994002292648
-21.2691316364575 -71.2364809873854 -43.49775799505
-21.5310165384644 -71.0574214598086 -43.3159763114111
-21.6631977841018 -70.7387967079979 -43.1891152327981
-22.0387609465796 -70.2861680808029 -42.9258180138402
-23.3031868261472 -68.5007028366696 -42.2222736802285
-30.9040090043648 -63.9893787872316 -31.5318027287318
-30.8748820541624 -63.985910861316 -31.4472379961547
-30.8457554625081 -63.9824431564514 -31.3626745064796
-30.6404816998542 -63.7337394739267 -31.4439708969021
-30.6607557978412 -63.8266262580811 -31.2359905168733
-30.6316270125829 -63.8231617650537 -31.1514284744228
-30.6024955931794 -63.8196984415691 -31.0668669838574
-30.5733616216239 -63.8162381088709 -30.9823056976145
-30.5302278071277 -63.8111242894165 -30.8571266649105
-30.1890867814028 -63.5475870808787 -30.5726491230477
-30.2643935513586 -63.7808704404829 -30.114154052375
-30.2072352020662 -63.774128241558 -29.9483640878293
-30.1500617647886 -63.7674056474333 -29.7825791460327
-30.0928754331297 -63.7606994462714 -29.6167977797606
-30.0356783187004 -63.7540046049913 -29.4510188893509
-29.7676080003596 -63.4998399658848 -29.3891132761068
-29.908634697705 -63.7398572883964 -29.0933453775513
-29.8515611451006 -63.7331927848973 -28.9279577692787
-29.570854551882 -63.4782932192939 -28.8401724766642
-29.7247803687942 -63.7191226003412 -28.5713004626914
-29.6678433240241 -63.7124687813858 -28.4062983546822
-29.3744345603099 -63.4566669829046 -28.292008722284
-29.5412718097444 -63.6982527079734 -28.049788147333
-29.4843572328607 -63.6915719120514 -27.8847788131424
-29.4274611468316 -63.6848675236139 -27.7197641837725
-29.3705882154196 -63.6781315187934 -27.5547429552387
-29.3279586408533 -63.6730600121044 -27.4309947323468
-29.2995634237899 -63.6696641908145 -27.3485215071819
-28.9739019776016 -63.4092886759419 -27.1610234656748
-28.5863696640834 -63.0451895931937 -27.1347677344652
-28.3240003669594 -62.9271326405191 -26.6989883621436
-28.3173790723263 -62.9507264450622 -26.5931070194567
-28.3491092799635 -63.0397752984146 -26.3819792387738
-28.2367560436418 -62.9502410337535 -26.3236026478062
-28.1597878865623 -62.913976830392 -26.1920207258843
-28.1113128508398 -62.8845831138031 -26.131887305472
-28.1582548204463 -62.9808970610256 -25.9153881874718
-27.9969032908493 -62.8350821662678 -25.8882726887011
-27.9092519338524 -62.7625560475883 -25.8472046785299
-27.7676863703188 -62.6461060936019 -25.7702068488883
-27.592017431554 -62.4380148456903 -25.9483461286051
-27.5185033469893 -62.3644403802817 -25.9682485150458
-27.4554125532143 -62.2953200489355 -26.0130181581202
-27.199036945068 -62.0539149406323 -26.0376637452346
-27.1679610972077 -61.9900577686766 -26.1961886550197
-27.1314051148578 -61.9328840070255 -26.2960037298206
-27.0019397377153 -61.7766490750559 -26.4603947172189
-27.1970503541282 -61.9109361240869 -26.6450672899189
-27.2283740359847 -61.899735592388 -26.7993251515428
-27.2621567693064 -61.9050798650985 -26.8950829963594
-27.4557310372481 -62.0500617010121 -26.9998315630987
-27.3497658808983 -61.9366749884985 -27.0749879749205
-27.4565789745722 -62.010254433258 -27.1564511735836
-27.5028707403708 -61.8969532379506 -27.6951138073089
-27.8095686582644 -62.0326346814105 -28.1679539398746
-27.9687017768642 -61.9866270590392 -28.802983516134
-28.268876797663 -62.2287002494906 -28.8866315135179
-28.5318067453373 -62.3656366058396 -29.2124736135279
-28.8736863624307 -62.7354328202817 -29.0490619378045
-29.1672256623139 -62.9880164586495 -29.1332689705604
-29.0824725190068 -63.643240570658 -26.7390707922525
-29.0541008971019 -63.6398151752799 -26.6565918632631
-29.0257435944581 -63.6363729932741 -26.5741076320697
-28.9974019023341 -63.6329150700066 -26.4916189259042
-28.9690731865845 -63.6294425750199 -26.4091262966517
-28.9492480707997 -63.6270061801179 -26.3513822697079
-28.9379226599409 -63.6256110909954 -26.3183884285125
-28.9265989505168 -63.6242140080153 -26.285394451102
-28.655400748877 -63.3695637800918 -26.2584106731611
-28.873342540103 -63.6168234434541 -26.1324686821514
-28.8620206141068 -63.6154261878601 -26.0994742209634
-28.8506991802799 -63.6140277142864 -26.0664784487658
-28.8393768137425 -63.6126284163977 -26.0334830922382
-28.8322877403473 -63.6117573078007 -26.0128364737574
-28.829431109377 -63.6114153854241 -26.0045386614309
-28.8265756876721 -63.6110726871697 -25.996242023899
-28.8237207581365 -63.6107287709355 -25.9879440753574
-28.8208666793183 -63.6103838577725 -25.9796460587083
-28.8180143019347 -63.6100369507518 -25.9713479058442
-28.8151642001483 -63.6096886531376 -25.963047958193
-28.8102413991422 -63.6090786515268 -25.948695639316
-28.8032536889936 -63.6081965345295 -25.928287782334
-28.7962871038447 -63.6072896554741 -25.9078740782876
-28.4995891218506 -63.3424370673477 -25.7988034421761
-28.7185632965652 -63.5905649329678 -25.6734276743333
-28.7116492216518 -63.589593306376 -25.6529992525189
-28.7047662037914 -63.5885865547731 -25.6325625758853
-28.6979151453293 -63.587540420956 -25.6121153699758
-28.6911169876218 -63.5864566671855 -25.591716405774
-28.684374641369 -63.5853325237262 -25.5713667218592
-28.6776697173664 -63.5841632375306 -25.5510073429254
-28.6710036404941 -63.582948414934 -25.5306365422932
-28.6643766873066 -63.5816864557436 -25.5102559104269
-28.6577883656348 -63.5803785779391 -25.4898667583363
-28.6512401003586 -63.5790243878556 -25.4694673593416
-28.6350938579196 -63.5753399524101 -25.4183402046919
-28.6096473029348 -63.5689757432313 -25.3364186338743
-28.584837537406 -63.5618619677166 -25.2543566079484
-28.283713691539 -63.2807310642835 -25.1106596729439
-28.4902903442871 -63.5245452547503 -24.9332204990171
-28.4667571663493 -63.5159448513379 -24.8509091121785
-28.4438617875039 -63.5066071767646 -24.7684922047871
-28.4216121288109 -63.496531278139 -24.6859815177632
-28.4052939359596 -63.4885575181421 -24.6240564749202
-28.3946641475551 -63.4829630887907 -24.582754522765
-28.3841998082784 -63.4771843614682 -24.5414376199373
-28.0983805625354 -63.1876952530932 -24.4281647451969
-28.3205465030217 -63.4348465513532 -24.2833411955712
-28.3104121902301 -63.4286964213673 -24.2419992990068
-28.3004473129102 -63.4223598868274 -24.2006472190555
-28.2906518710622 -63.4158369477334 -24.1592849557171
-28.2834029296771 -63.4108420181388 -24.1282744922672
-28.2786390121808 -63.4074452168367 -24.1076169356342
-28.2739172203748 -63.4040016083173 -24.0869569370718
-28.2692361293792 -63.4005115862455 -24.0662962232598
-28.2645993060498 -63.3969748053934 -24.045633826643
-28.260005817676 -63.3933904414462 -24.0249701628915
-28.2554556642578 -63.3897584944039 -24.0043052320053
-28.2509522063486 -63.3860795146939 -23.9836476661912
-28.2464945112378 -63.3823526780013 -23.962997881119
-28.2420818525173 -63.3785762643559 -23.9423466926971
-28.2377155214457 -63.3747513191236 -23.9216949281575
-28.2333945853124 -63.3708770179894 -23.9010430031701
-28.212144839793 -63.3495226335889 -23.7939432088958
-28.4337557912297 -63.5900718189993 -23.6211918201104
-28.4507273614088 -63.6075037159064 -23.7076400808346
-28.4464928795721 -63.6035338663688 -23.6869885230518
-28.1860523831945 -63.3219270030575 -23.6591211192119
-28.1723775928709 -63.30521624358 -23.583041790289
-27.9384315086402 -63.0494997874092 -23.6104854372228
-28.1327252040496 -63.2566004680989 -23.2855902642169
-28.0838425990325 -63.1930054798146 -23.1623774691768
-28.2987326144604 -63.4221226863182 -23.0209217046417
-28.2596448872541 -63.3714217611142 -22.9365608924206
-28.2665189010351 -63.3794771780678 -22.9382943109699
-28.2733804000524 -63.3875250080173 -22.9401088997689
-28.2802291686914 -63.3955648687495 -22.9420075602917
-28.2870639039524 -63.4035931891173 -22.944001003095
-28.2938823184974 -63.411608833933 -22.9461025607547
-28.3006809673509 -63.4196081836124 -22.948322184703
-28.3074615636885 -63.4275917700792 -22.950648200936
-28.3142275549145 -63.4355644608304 -22.9530524219451
-27.9027110893675 -62.9788295956204 -23.0674652681599
-27.6226180386913 -62.6629057261722 -23.0753311031056
-27.3539827847155 -62.4023136028966 -23.3812370729538
-27.1278864372867 -62.1466120962969 -23.2830007906317
-26.7642575139877 -61.807565302583 -23.6805181205825
-26.5325350261974 -61.556235781444 -23.5829928791481
-26.0558799625866 -61.1129822901758 -24.006083598617
-25.8175181913398 -60.8647000882345 -23.9100619176539
-25.4467141282549 -60.5332709086935 -24.2830561028728
-25.3111102846287 -60.387289545166 -24.139691585601
-25.0520935470613 -60.167010004179 -24.461068791224
-24.9057087079022 -60.0135876504574 -24.3222527311622
-24.5082462314666 -59.6729087263878 -24.6925922957556
-24.1794542246656 -59.3338818995891 -24.4922933419005
-24.550554958577 -59.6271934172322 -24.0023818702416
-25.003711138706 -60.0612148325341 -23.9421193375157
-25.2777775203326 -60.3141798927433 -23.8186274414954
-27.0849464220392 -62.0704782331816 -23.0336997898145
-26.7260782481111 -61.7150357105798 -23.2245092096654
-26.5081483135911 -61.4830318865465 -23.2321049027571
-26.0762433204307 -61.0759497554694 -23.4945668912766
-25.6721064930497 -60.6714109235057 -23.54649693239
-24.5588460852555 -59.7377519548387 -25.1093274456812
-24.3664872772162 -59.5585149763025 -25.5320463993287
-24.7357980787131 -59.8712909371359 -25.8561098242717
-24.6075649396349 -59.7051298778027 -26.3733417155302
-24.9732636363466 -59.9814958524066 -26.6214955464622
-25.1252866961499 -60.0319573529514 -27.0720498812743
-25.5145398001918 -60.3779050326785 -26.9510132529251
-25.7121760973408 -60.5125722248972 -27.1088449635084
-25.8824557746966 -60.7229756282956 -26.7838770961377
-26.0783080399677 -60.8582301521722 -26.9420317047809
-26.3547410741591 -61.1787737821257 -26.567326474842
-26.6566133612525 -61.4212403105467 -26.6757985948963
-24.9711235495893 -59.8324316729342 -27.4509368658012
-25.3555733410528 -60.0931301505841 -27.7179967457107
-25.7073727847625 -60.42732302282 -27.4969414717671
-25.8734111686787 -60.5503401228027 -27.5601384180933
-26.0740667465281 -60.7708438487566 -27.3301965184778
-26.2385935980891 -60.8946231602431 -27.3937258164643
-26.5447071786222 -61.2244759920797 -27.1140331228217
-26.8153920805918 -61.4552975123764 -27.12804351859
-27.1561916129566 -61.7916931525849 -26.9702394081812
-25.3038939671862 -59.9019547398927 -28.3384400789425
-25.7798593068088 -60.1581082264119 -28.8134412889583
-25.9975770645916 -60.472300737086 -28.2561949020527
-26.3220232109743 -60.6123353366265 -28.7228679038484
-26.3623841666223 -60.8141540338296 -28.0903407178755
-26.6839849176459 -60.9544784326652 -28.5578412055649
-26.8308792510823 -61.2657690793754 -27.8752366999221
-27.255629770082 -61.5122972778396 -28.2943141976883
-25.8720880820957 -59.9746306461077 -29.7691242017622
-26.2477300316007 -60.2083455968626 -29.9783264289255
-26.4799474026965 -60.5318577767072 -29.4893165179173
-26.6774332361942 -60.6510493905259 -29.6238813076246
-26.8411097954955 -60.8718513492807 -29.3249331812451
-27.0364413914588 -60.9921915401641 -29.4599788825047
-27.3040670326089 -61.3213468220128 -29.1119644045907
-27.6024791329787 -61.5489006658339 -29.1984662919623
-27.9331833105387 -61.8813737102342 -29.0445284350793
-28.188037900782 -62.0042358814113 -29.3749994979976
-28.4864863147818 -62.2464255865651 -29.4592966790623
-28.7492626815878 -62.3839921991296 -29.7852982384748
-29.0881224120265 -62.7557868567718 -29.6226822056963
-29.3791954995122 -63.0093701030704 -29.7078538385865
-26.6666175134413 -60.0423568160793 -31.6974458411696
-26.5581128482275 -60.2310377282172 -30.7346900224776
-26.4025272385944 -60.2201950843541 -30.3566945305303
-26.7111595164247 -60.5499259535013 -30.0571957750652
-27.7078793846512 -60.1700625184115 -34.3090469487037
-27.6547718628948 -60.3364881600795 -33.4414428592279
-27.2406849471919 -60.2899106892293 -32.3980279304936
-27.3290803087898 -60.5967003459052 -31.5700003341635
-27.1407086396511 -60.6843377205905 -30.7592620163502
-27.300737426564 -60.9059684264859 -30.461714855559
-27.2654427154851 -61.009323309856 -30.0287178670161
-27.5300381069735 -61.3393629832304 -29.6816447303653
-28.2546532333785 -60.2964274204546 -35.7991731509952
-28.3738810213383 -60.4749573870856 -35.3599716307814
-28.1966608591096 -60.4329839172518 -34.8664334996516
-28.443118875289 -60.7378725973277 -34.4222515693355
-28.2710463060124 -60.801322672631 -33.605096583993
-28.3193549853988 -61.001301327391 -33.0229412583518
-28.0258669116608 -61.0700085428093 -31.924115166994
-28.1340252648021 -61.3867845648018 -31.2000289616229
-28.0526380855239 -61.5835790986582 -30.3385572020997
-28.3764719868033 -61.9160008673021 -30.1872242201426
-28.4082689211638 -62.0208938626569 -29.9469763143232
-28.7045019107156 -62.263717468386 -30.0320755977189
-28.6108225939269 -60.5487423634268 -36.0476316801341
-28.4500424830203 -60.3641708037789 -36.376099324109
-28.7520497506908 -60.6120756017371 -36.4968273500144
-28.5761546983798 -60.4287277977522 -36.7896501350955
-28.6690303021894 -60.4984444854386 -37.1363063029701
-28.8576826758242 -60.7414119138547 -38.0371295428607
-29.0527330931736 -60.8787184697685 -37.6977164653392
-28.9628193665125 -60.7638881618458 -37.272558845704
-29.2550217447048 -61.0369081346614 -36.8964897920877
-29.2516957406566 -61.0642177293138 -36.4155493993633
-29.4161713301819 -61.2519194485525 -36.1046183611831
-29.4192211895958 -61.3154244715604 -35.7017216769453
-29.6936046896941 -61.6283377580171 -35.4056714943078
-29.7846872829755 -61.814406150016 -34.9549288249331
-30.0427232998648 -62.1120527101978 -34.7240995702824
-30.0661605958084 -62.191499297523 -34.5014403649904
-28.9041611865925 -60.8672985197778 -38.3910670705006
-29.1445332003854 -61.1709330756192 -38.4743614449078
-29.478802636004 -61.4301347355732 -38.1602069443207
-29.6023383330804 -61.6344635743417 -38.3104421235101
-29.8126890116411 -61.744711373107 -37.9589679437752
-29.9340719372399 -61.9454998216253 -38.1000240293594
-30.2323134252627 -62.1549981520334 -37.6779401407792
-30.4472893741609 -62.4432736459878 -37.7339504530694
-30.7149401873839 -62.699912549013 -37.5268929969729
-30.7903626986105 -62.8970439222863 -37.7586063071711
-30.9914779064128 -63.140265811342 -37.6696990509085
-31.1210732201338 -63.3687034136281 -37.7180184492617
-31.4600676425186 -63.6934401048414 -37.3970697891685
-31.6578641211423 -63.9270173547541 -37.2819291946913
-31.9622081807858 -64.2016795715713 -36.9735510965375
-32.0602812995274 -64.3405430148846 -36.9623992514691
-32.0570803177994 -64.3667965451016 -37.0173398342578
-31.9412099902643 -64.3558325449567 -37.2445642647211
-32.012968070709 -64.5585065035583 -37.3326613061794
-31.8604447427839 -64.6399450213503 -37.6484795524774
-31.8978194518151 -64.8647284542434 -37.7316595340122
-31.7115648115854 -64.9851721745216 -38.0087476347736
-31.7146188370489 -65.2248052122926 -38.0763753793469
-31.6203884032209 -65.3821923134397 -38.2094943577393
-31.4837684896263 -65.4040164656664 -38.3293426623195
-31.5113778909502 -65.5708369905849 -38.3301315193606
-31.4439918118435 -65.6698232090279 -38.3926020468346
-31.2588896331105 -65.7753559424603 -38.5371277971116
-31.257936996944 -65.9534294162933 -38.5395475040535
-31.1632792642383 -66.082893213618 -38.6042056893879
-31.0702361509179 -66.206234207598 -38.6583145535176
-30.9335742346715 -66.25768866674 -38.7418112483412
-30.8979236657665 -66.4541085057518 -38.7481120586106
-30.8505127926619 -66.5148643285596 -38.7706320186384
-30.7142830763077 -66.5785131640394 -38.8450164790215
-30.6605423825805 -66.7698854355501 -38.8491418556828
-30.4024814204271 -67.0136250652967 -38.9608818853918
-30.229748981538 -67.3337320442346 -39.0038960493009
-29.8526776787025 -67.7959946286417 -39.13247279428
-29.5902977811037 -68.0982940296134 -39.2215975079793
-29.1817655655657 -68.6732645291885 -39.340824636675
-28.8782186727694 -68.5400999688663 -39.5293767477862
-28.4160326994698 -68.6584535563035 -39.7586669933728
-28.1231560638411 -68.1212613427628 -40.0035447309001
-27.6961157388559 -68.2742852663126 -40.1963052135847
-27.7020915512482 -67.739736267391 -40.2749286869263
-27.4184152727861 -68.023610733398 -40.3730511688679
-27.1505003712005 -67.7831622637591 -40.5305854106263
-26.3300250345072 -68.3844394726208 -40.8534993124953
-25.6248650665663 -68.5513823042614 -41.1725379317154
-24.8061414940712 -69.3989616988938 -41.511221837772
-24.2149002544927 -69.6529524045273 -41.7943314776319
-23.4954906016302 -70.3831158972743 -42.1623973883031
-22.9738243369551 -70.2402917899331 -42.4253544307885
-22.398789467733 -70.4752027560229 -42.7446211011912
-28.9206832870054 -61.0728487958772 -38.8304348398336
-29.1454338818336 -61.3872502190827 -38.8980024555992
-29.49281949229 -61.6896633375932 -38.6921642398628
-29.5984787126218 -61.8514007977537 -38.7205709150883
-29.8293804790111 -61.9969894830206 -38.4799048843197
-29.9330908283418 -62.1555638571943 -38.5016184895465
-30.2527582354689 -62.3923496897535 -38.1777479468764
-30.4517133562901 -62.6365868059936 -38.115602278494
-30.7216670062088 -62.8846421355012 -37.9035180948851
-30.7721440986465 -63.0485705059652 -38.0260118315563
-30.9704351047692 -63.2894098950364 -37.9294194421955
-31.0770466545767 -63.5661608891112 -38.0185044138661
-31.4254812485649 -63.8790316576156 -37.6919628264551
-31.6132334800257 -64.1510936522931 -37.6290951519683
-28.9003850351127 -61.2486701632978 -39.1315333543869
-29.1099689601047 -61.5716217204977 -39.1812705864282
-29.4606770271574 -61.8719392364432 -38.9761463628659
-29.5588079736238 -62.0364288295425 -38.9942411238705
-29.800320008419 -62.1744647650268 -38.7603792813197
-29.897005092243 -62.3352348241477 -38.7724276552438
-30.2287310329871 -62.5605710325554 -38.4515211950882
-30.4230096902772 -62.803946065677 -38.379716497762
-30.6964691060179 -63.0438902095792 -38.1662913178389
-30.71533323338 -63.2565237639276 -38.3275957758094
-30.8976197758161 -63.5379550543885 -38.2764012611973
-30.9676127124534 -63.873769594918 -38.3934828029959
-31.3347918226748 -64.1740374243183 -38.0727182811779
-31.5102450049883 -64.4602148347739 -38.0040056402287
-28.8544523063883 -61.4373823051573 -39.4019470299598
-28.8088704092814 -61.5689158052653 -39.5605110649001
-29.0007647894603 -61.8806208667257 -39.5491845204788
-28.7023590157352 -61.8166209250236 -39.8136691688412
-28.8591021286336 -62.175090161 -39.8190976515588
-28.5333512700643 -62.127487819337 -40.0538092478576
-28.6548760967178 -62.5291790119364 -40.0677074136201
-28.3101878850272 -62.4935964767948 -40.2808704800311
-28.4330016677884 -62.8759920409018 -40.2588405529125
-28.2834085127257 -63.0979860883579 -40.3600320675227
-28.6054845518482 -63.4554593432299 -40.2077978066135
-28.6466443123859 -63.6700218443808 -40.1930967668086
-28.95861364398 -63.7591100860556 -40.0200816876849
-28.9981066547968 -63.9741727923618 -40.0038921788149
-29.4136160990547 -64.1458008902689 -39.7590117683053
-29.5559600164349 -64.4530471656023 -39.6789018171406
-29.8345561331715 -64.6955251708739 -39.5135619339602
-29.7140434688329 -65.0103542616718 -39.5804935833934
-29.8405414721822 -65.3543875658663 -39.4861755455625
-29.6666810837331 -65.5982355954438 -39.5674776869258
-29.7627547378164 -65.8534130924049 -39.4878666715599
-29.3713618423998 -66.0061017867328 -39.6798077281173
-29.3955758969496 -66.3665003864344 -39.619227259242
-28.772230371036 -66.8162091828574 -39.8748026258046
-28.6520286723537 -67.3847400728924 -39.848086808084
-27.8992729599898 -63.0977023497676 -40.5534549401592
-27.9300397980271 -63.6008430946133 -40.5563448902749
-28.3553351113006 -63.8156893343545 -40.3482209778336
-28.3767250838145 -64.0558322327113 -40.3347830335113
-28.7075272957165 -64.1252274490439 -40.1634693136162
-28.727400357059 -64.365807044636 -40.1478292310692
-29.1603236335195 -64.5219986632874 -39.9081421451031
-29.282819171124 -64.8566124133142 -39.8282006091183
-29.5579428897008 -65.102490006427 -39.6658919305889
-29.4427355939964 -65.3973377328241 -39.710750372291
-26.764342414982 -64.6171520604029 -41.0018793380513
-27.53863988895 -64.1363086486992 -40.717588742088
-27.7606717421943 -63.8362677671632 -40.6337781626135
-28.0895197411438 -64.1881206197821 -40.4730104439587
-24.9427431263351 -66.9931638175633 -41.5962920247162
-25.8975504705854 -66.286786580025 -41.2440818694667
-26.4481331825448 -65.5651466276895 -41.0784535005103
-27.1922363302014 -65.3907343495763 -40.7863022669727
-27.7646630643988 -64.8951824310432 -40.5790940375939
-28.148440314542 -64.9046628563769 -40.4016881317938
-28.4857130448664 -64.7065229313077 -40.2556812763738
-28.8938193321289 -64.9052601953994 -40.034815186207
-23.4078684831492 -69.0402837008703 -42.1750829707877
-23.9559658146567 -68.863016878843 -41.927501948855
-24.6582126271057 -67.9113376763873 -41.6527678899868
-25.4901527580387 -67.6349320843722 -41.310200328425
-26.2155073528164 -66.9447700015388 -41.053582249079
-26.7008020311457 -66.8388007832158 -40.8538028170054
-27.3649988485749 -66.2197239500928 -40.6260068352321
-28.0060886253144 -66.1220258671837 -40.3407406318126
-28.6746252822883 -65.7130445824069 -40.0693415199816
-28.9463812939564 -65.9589216725128 -39.9080889597138
-29.1472389047394 -65.8035221385832 -39.8235069203206
-23.0202146807562 -69.5765399970753 -42.3686867224492
-22.4231090064972 -71.0537927948786 -42.7862665333378
-21.9308992397063 -71.1833828714692 -43.0943245245997
-22.157641669295 -71.7824288397646 -43.0439882022384
-23.00837942344 -72.5078899645213 -42.6153705632003
-22.9153536329944 -72.1781874969993 -42.6289857463352
-22.6595355300397 -71.9497357484946 -42.7601951295539
-22.8845504362799 -71.5967333776009 -42.5776607744247
-22.874866342326 -71.2998363922803 -42.5533958558473
-23.3722130682369 -70.8640704607657 -42.2487933812154
-23.4821372214012 -72.6667632420204 -42.3218849940308
-23.649850351083 -73.0328254052907 -42.2586734251766
-23.9387581751796 -73.0457100589131 -42.0637526529405
-24.0753972305841 -73.334959383629 -42.0044975891747
-24.3943971294201 -73.4070743602925 -41.7870029987608
-24.7307337525965 -73.7977857601894 -41.5929178894598
-24.9552356665545 -73.9169258789136 -41.4425699692394
-25.0375416707026 -73.9046224054868 -41.3794841390929
-25.1621913667991 -74.0948200983967 -41.3101090075878
-25.1823264039233 -74.1033096073935 -41.2960176074323
-25.2024956067025 -74.1115914777998 -41.2818521275829
-25.2227011082201 -74.1196401892998 -41.2676081776067
-25.242948547685 -74.1274197133137 -41.2532766819425
-25.2632432970634 -74.1348968993232 -41.2388536728522
-25.2835838191171 -74.1420652382311 -41.2243393657912
-25.3039626304788 -74.1489507681948 -41.2097396025248
-25.3494170641959 -74.1975831562551 -41.180848604226
-25.3304612091577 -74.1466903787753 -41.1894542858482
-25.3528775102386 -74.1321024166563 -41.1708998542504
-25.365143249025 -74.1141887617786 -41.1597823266622
-25.4490212030973 -73.9935495413767 -41.088220253904
-25.5245904468691 -73.7830123983972 -41.0191154177952
-25.7200587861683 -73.5828061652846 -40.8666061188779
-25.5322647523109 -73.3155197046822 -40.984194107347
-25.59007578045 -72.7710051965564 -40.9523738694367
-25.0953390189837 -72.4115024894391 -41.2695190429034
-25.1217068254369 -71.8400091409972 -41.2526983277864
-24.8800502046112 -71.6225294296058 -41.4030746380177
-25.4441984068735 -70.7509285078567 -41.1114514313204
-25.1835811113845 -70.5173639790835 -41.2610433475078
-25.2869118927256 -69.8273352084947 -41.2440818768429
-24.5899933403073 -69.9870347336851 -41.5968235226048
-26.0266715952603 -72.6974675311305 -40.663563601582
-26.1859957475878 -72.332921110086 -40.5666135316427
-26.3610530341261 -72.103288999398 -40.4706750310487
-26.6020772621817 -72.3210572935809 -40.3078467503159
-26.6111312376791 -72.4573476686367 -40.2947024006498
-26.4270199756434 -72.5506894042689 -40.4037852509098
-26.5976660749063 -71.7500207213089 -40.3570469494622
-26.9858013900205 -71.7971813634685 -40.1147834997034
-27.0257250631935 -71.7456566215233 -40.0949460506059
-27.0657793628932 -71.6941173634556 -40.0754102131761
-27.1059556509639 -71.6425641000549 -40.0561617606895
-27.1279183991344 -71.4864833982797 -40.0603794740002
-27.1756737216929 -71.6175485454199 -40.0163787813671
-27.2068966363577 -71.5137444767969 -40.0092249372849
-27.2453888125188 -71.5924757378471 -39.9765874450648
-27.2857634821906 -71.5409023431778 -39.957810505388
-26.5615108507171 -71.1895577814396 -40.4385114333924
-27.0220881403358 -70.9519814159701 -40.1840292311177
-27.2460994123858 -70.6704117366968 -40.0908753519871
-27.4616958075834 -69.9337514102461 -40.0772350186175
-27.9639020207945 -69.7183395755626 -39.8285690317054
-28.3393474154111 -69.2562495772935 -39.69614758816
-32.0627476162074 -64.2837945809978 -36.8461229644398
-32.0628773006773 -64.2484587231743 -36.7612248542918
-31.9605183021518 -64.0909235669715 -36.7300781381129
-32.0509056868947 -64.1423549760887 -36.4879180684223
-31.9307497426397 -63.9566135855248 -36.3696437638861
-32.0068781761012 -64.0103100570563 -36.0817002357278
-31.8687744517553 -63.8324300551834 -35.9565427235584
-31.9383514784793 -63.9181385886475 -35.7012272339445
-31.7802059592026 -63.7448540168287 -35.5524508456453
-31.8455838885382 -63.8493331358232 -35.3102906565992
-31.6655104784762 -63.6807592322899 -35.1270885414283
-31.7507208347452 -63.8065662434345 -34.9705401572294
-31.723393430083 -63.7970706480584 -34.8761664415008
-31.7026493358043 -63.7913430614687 -34.8080851307107
-31.6665612029335 -63.7837812968231 -34.6954314852388
-31.5062176183483 -63.6343306629214 -34.614340548973
-31.5798854342472 -63.7669350980166 -34.4324203332041
-31.5553102231907 -63.7633712449634 -34.3595361922075
-31.3619939431701 -63.6090683804211 -34.1862100138962
-31.3738185867753 -63.7369236634126 -33.8266698797099
-31.0918626320521 -63.5695730913872 -33.3996154532417
-31.0742716080419 -63.6964863710265 -32.9550864405109
-30.8757410724219 -63.6726674437466 -32.378265845309
-28.4790645978798 -62.8875899331588 -27.3368963640533
-28.5178031221579 -62.7716408529786 -27.851934186641
-28.6597582237774 -62.7146439098208 -28.4757355321325
-28.3150785533428 -62.3465576174542 -28.6397810976575
-28.1933902318919 -62.5567109618691 -27.5562350374013
-28.1293575331229 -62.4849320762942 -27.6030697466976
-28.1090907529543 -62.3317756750371 -28.0628144614623
-27.9037558786747 -62.2599259294448 -27.6746353010633
-30.0769756390221 -62.38834504201 -33.8312365779423
-30.1115269386271 -62.4431250642129 -33.7591713272106
-30.1154407885528 -62.4483635385979 -33.7545679421758
-30.1194330371986 -62.453648422154 -33.7500874940657
-30.1235039001789 -62.4589800970943 -33.7457270814062
-30.1276538180352 -62.4643606057136 -33.7414875995371
-30.0978701431713 -62.4959214065727 -33.5353650562324
-30.2472368928568 -62.6004598436949 -33.6824735900208
-30.2515308267597 -62.6059200300546 -33.6784873918454
-30.2558890656777 -62.611408635968 -33.6746355527082
-30.2603041479261 -62.6169190669157 -33.6709213979689
-30.2647741260905 -62.6224478530241 -33.66734610653
-30.2692999328814 -62.627995818608 -33.6639092627215
-30.2738809331961 -62.6335643428096 -33.6606080331768
-30.278517977752 -62.6391524286998 -33.6574423497885
-30.2832096416691 -62.6447604699436 -33.654413939236
-30.2879564171168 -62.6503872485612 -33.6515214905099
-30.2927570948297 -62.6560335404305 -33.6487638288156
-30.297614615873 -62.6617016573341 -33.6461438515192
-30.3025285397055 -62.6673895569773 -33.6436606632812
-30.3074966423579 -62.6730953696794 -33.6413138525395
-30.3125218648955 -62.678821407223 -33.6391063166603
-30.3176029980529 -62.6845684454859 -33.637036880849
-30.3227399598369 -62.6903346632244 -33.6351058926681
-30.327934041506 -62.6961211058044 -33.6333141793497
-30.3331834596324 -62.7019279458397 -33.6316622246713
-30.3370152111301 -62.706143426266 -33.6305387512143
-30.3394028709477 -62.7087555962526 -33.6298897676049
-30.3417948005474 -62.711364089419 -33.6292720761099
-30.3441906413811 -62.7139686847144 -33.6286844338272
-30.346590475442 -62.7165712033824 -33.6281264931943
-30.3489960041649 -62.7191696515654 -33.6275981179962
-30.3514054441218 -62.7217642018774 -33.6270997920104
-30.3538197280233 -62.7243556786332 -33.626631099567
-30.3562397065867 -62.726943084904 -33.6261919725584
-30.3586627456669 -62.7295275902326 -33.6257829628696
-30.3610909872396 -62.732109243056 -33.6254048296252
-30.3635240727569 -62.7346878223231 -33.6250563299231
-30.3659603524123 -62.7372620616175 -33.6247353936292
-30.3684014760122 -62.7398332273556 -33.6244440908777
-30.3708474435568 -62.7424013195376 -33.6241824216685
-30.3732991057633 -62.7449653412346 -33.6239503178941
-30.3757556119144 -62.7475262893755 -33.623747847662
-30.3782153941967 -62.7500847187873 -33.6235725932757
-30.3806790877131 -62.7526392503279 -33.6234273881018
-30.3831476251741 -62.7551907083124 -33.6233118164701
-30.3856206480317 -62.7577388716899 -33.6232246354787
-30.3880980742926 -62.7602819192165 -33.6231661926901
-30.3905791352328 -62.762822669065 -33.6231362086492
-30.3930651221109 -62.765362166601 -33.6231355105883
-30.3955564451028 -62.7678973726011 -33.6231631350601
-30.3980521714982 -62.7704274627505 -33.6232194977347
-30.4565300690184 -62.8254872293938 -33.6399602618453
-30.5563966284873 -63.0157826928187 -33.3654689606203
-30.8661477752539 -63.2789964056531 -33.554458039528
-30.8761471151141 -63.1839228707723 -33.8893736617588
-30.9576885540527 -63.2430653256279 -33.9743193961189
-31.0083085974851 -63.2691076359596 -34.0634455668073
-31.1406573717393 -63.3726865838466 -34.1831973803471
-31.1134355149505 -63.2872022007176 -34.3688013802619
-31.1300306421333 -63.2740961589198 -34.4724261055824
-31.1334504285053 -63.2615763054117 -34.5277411839264
-31.0393657782947 -63.1528514284752 -34.560617651432
-31.0392773663341 -63.1521241279877 -34.5628260384976
-31.1332719660037 -63.2599633674546 -34.5327103663084
-31.1331212563695 -63.2588619375201 -34.5360009310437
-31.1329497319235 -63.2577414171132 -34.5392856534787
-31.1327573926659 -63.2566018062338 -34.5425645336135
-31.1325444542111 -63.2554434870952 -34.545834669974
-31.1323104243898 -63.254267677677 -34.5490973735696
-31.1320565124674 -63.2530736021012 -34.552353819195
-31.1317810686372 -63.2518599939513 -34.5556019367161
-31.1314835187367 -63.250626249963 -34.5588433847048
-31.1311660867351 -63.2493742398173 -34.5620785747232
-31.1308284140844 -63.2481037424632 -34.5653062638694
-31.1304695680739 -63.2468139335857 -34.5685268678132
-31.1300886979864 -63.2455058101138 -34.5717404546623
-31.1296866545391 -63.2441783751185 -34.574946956309
-31.1292643704427 -63.2428324529148 -34.5781459570835
-31.1288209129866 -63.2414672191877 -34.5813378726556
-31.1283554314534 -63.2400836708662 -34.5845227711329
-31.1278687765605 -63.2386808110213 -34.5877005844079
-31.1273617990251 -63.2372576427243 -34.5908712443731
-31.1268327974128 -63.2358161598327 -34.5940348872435
-31.1262831966032 -63.2343559686819 -34.5971897863395
-31.1257120029458 -63.2328782273628 -34.6003318653926
-31.125120149151 -63.2313837601903 -34.6034607087328
-31.1245091420921 -63.2298739947435 -34.606574242118
-31.1238783466662 -63.2283503101642 -34.6096696321817
-31.1232275472588 -63.2268123242394 -34.612749780398
-31.1224044825856 -63.2249133396126 -34.6164842299486
-31.1213986796446 -63.2226451545195 -34.6208622186009
-31.1203521516445 -63.2203479246334 -34.6252072377543
-31.1192669585681 -63.2180198771477 -34.6295203940958
-31.1181413169874 -63.2156611846762 -34.6338021714028
-31.1169758830582 -63.2132742717266 -34.638050563541
-31.1157714255047 -63.2108563201265 -34.6422658499651
-31.1145265194469 -63.2084077235407 -34.6464497573548
-31.1132417390474 -63.205929085233 -34.6506006271381
-31.1119170843062 -63.2034204052036 -34.6547184593148
-31.1105529137713 -63.2008819045034 -34.6588044967872
-31.2650523971433 -63.3497597742861 -34.7102788419423
-31.1584531201973 -63.2085893860229 -34.8122809565159
-31.1570086268165 -63.2059901986151 -34.8163025773474
-31.1555251918045 -63.2033617938005 -34.8202907449025
-31.1041854395151 -63.1145124344213 -34.9654226821185
-30.9460259173466 -62.9590994279431 -34.9239621100742
-30.9444625180366 -62.9564105574719 -34.9278871038904
-30.942859244385 -62.9536916452788 -34.9317790601002
-30.9412160963917 -62.9509426913641 -34.9356379787035
-30.9395330740567 -62.9481636957276 -34.9394638597004
-30.937808035404 -62.9453546099323 -34.9432559439662
-30.9360424053137 -62.9425150403134 -34.9470125048215
-30.9342352510751 -62.9396441625561 -34.9507339579362
-30.9323860805188 -62.9367431946399 -34.95442161432
-30.9304975277902 -62.9338109670223 -34.9580749220877
-30.9285678914546 -62.9308494735609 -34.9616940174545
-30.9265987603783 -62.9278619630783 -34.9652764786157
-30.8951294463699 -62.8853947205422 -35.0043424999711
-30.825599471389 -62.7994866213775 -35.0626420423529
-30.7843824344229 -62.7522139102122 -35.08425187852
-30.7800454479609 -62.7475503546322 -35.08539571481
-30.7756835176032 -62.7428858355502 -35.0864443801791
-30.7712939272113 -62.7382197012652 -35.0873987740747
-30.7668767587785 -62.733553773021 -35.0882585489343
-30.7624337957326 -62.7288878782036 -35.0890232209804
-30.7579649560803 -62.7242201955693 -35.0896931377756
-30.7534726277775 -62.7195562372863 -35.0902680157569
-30.7489649896046 -62.714903039976 -35.0907470153685
-30.7444479963733 -62.7102657705787 -35.0911288854926
-30.7399239540458 -62.7056481200191 -35.0914136901288
-30.7353932211702 -62.7010503093479 -35.0916026721791
-30.7308548650359 -62.6964715142503 -35.0916962473135
-30.7263093778123 -62.6919105167466 -35.0916931045225
-30.7217575585886 -62.6873695801823 -35.0915953820476
-30.7171972653889 -62.6828486561204 -35.0914023207644
-30.6458119333407 -62.584446423273 -35.2131436665471
-30.762993746753 -62.6603976406198 -35.4455149993147
-30.6810625603239 -62.5354277593794 -35.6938347153889
-30.9108675519984 -62.743202673429 -35.9770888746818
-30.8218652147945 -62.6321798553276 -36.2400673719976
-31.0287320862378 -62.8631014276203 -36.4968134352195
-30.9254873832166 -62.7669220917831 -36.7606384412017
-31.1037009849198 -63.032748986969 -37.0056260616266
-30.9833239606062 -62.9692434113268 -37.3025944249489
-31.1318080718391 -63.228317253752 -37.4591736538446
-30.5781725668697 -62.529804180049 -35.154474175579
-30.5735974373287 -62.5253182479108 -35.1540893370169
-30.569014684529 -62.5208513313461 -35.1536090915388
-30.5644252411812 -62.5164042546699 -35.153033023475
-30.5598281745748 -62.5119761935674 -35.1523615484951
-30.555222551999 -62.5075663237234 -35.1515950822694
-30.5506098803272 -62.5031760727171 -35.1507315505558
-30.5459892268487 -62.4988046162334 -35.1497713690243
-30.5417286800012 -62.4947943207589 -35.1488065790422
-30.5378285865918 -62.4911428815631 -35.1478499613004
-30.5339213479233 -62.4875054662669 -35.1468263994985
-30.5300087474235 -62.4838819022564 -35.1457354098589
-30.5260909187138 -62.4802707505011 -35.14457443847
-30.5221666525288 -62.4766727868789 -35.1433423105372
-30.5182387470004 -62.4730904843345 -35.1420377790508
-30.5143117930001 -62.4695274210672 -35.1406658115108
-30.5103887315933 -62.4659859088597 -35.1392293052834
-30.5064736521702 -62.4624694660224 -35.1377278405908
-30.5025660625615 -62.4589793105353 -35.1361627284425
-30.498665163678 -62.4555131790526 -35.1345318305969
-30.4947726053261 -62.4520723379912 -35.1328372171881
-30.4908874547955 -62.4486559630362 -35.1310793038861
-30.48700899499 -62.4452636120856 -35.1292556048868
-30.4831385171682 -62.4418963305053 -35.1273669474222
-30.4792751706128 -62.4385551152243 -35.1254133995999
-30.4754188733306 -62.4352381449986 -35.1233953089823
-30.4715705580321 -62.4319462441433 -35.1213122598995
-30.4677324486865 -62.428681282339 -35.1191646639135
-30.4639084190696 -62.4254463956834 -35.1169550027205
-30.4601037162089 -62.4222475868835 -35.1146862376863
-30.4563186986524 -62.4190850769901 -35.1123596117129
-30.4525520751415 -62.4159578206375 -35.1099742975682
-30.4492589614845 -62.4132369456 -35.1078332189402
-30.398650603929 -62.3645276462574 -35.103615332892
-30.400036284913 -62.3995279421118 -34.9569307819501
-30.3972208243472 -62.3972270997806 -34.9550123022699
-30.3944166008433 -62.394945004441 -34.9530609194713
-30.3916240549426 -62.3926836983874 -34.9510775288938
-30.3888431866451 -62.39044318162 -34.9490621305375
-30.3860735554096 -62.3882214118441 -34.9470138290627
-30.3833143105186 -62.3860193859885 -34.9449326925771
-30.3805667432308 -62.3838381494191 -34.9428195483125
-30.3778295622876 -62.3816766567699 -34.940673569037
-30.3751021935265 -62.379534304777 -34.9384964133227
-30.3723864203752 -62.3774109208265 -34.9362875973919
-30.3696810335686 -62.3753072807963 -34.9340459464503
-30.3669863916545 -62.3732236057373 -34.9317727033997
-30.364303919513 -62.3711595019848 -34.9294661415608
-30.3616321922641 -62.3691153632034 -34.9271279876129
-30.3589711279145 -62.3670893681495 -34.9247585891187
-30.3563213826202 -62.3650839413309 -34.9223559399435
-30.3536821056636 -62.3631000796763 -34.919920108195
-30.3510522823411 -62.361135137627 -34.9174518571055
-30.3484346287911 -62.3591897668842 -34.9149502872276
-30.3458300777242 -62.3572647917627 -34.9124149828913
-30.3432354208325 -62.3553607785413 -34.9098481545537
-30.3406511502855 -62.3534765092401 -34.9072484912051
-30.29013033388 -62.3230979388109 -34.8327407890108
-30.1927151673082 -62.2138337046935 -34.8927768083349
-30.2701935958016 -62.2311911254104 -35.1376805331152
-30.2391334368621 -62.159565258683 -35.3228512748528
-30.4173201277208 -62.2803167826872 -35.619478281986
-30.3962494329004 -62.2246774798161 -35.8443858278357
-30.5709895282996 -62.3687656384068 -36.1817207585544
-30.5460978542099 -62.3315371554253 -36.4157132017093
-30.6937288376838 -62.4987720365089 -36.7378848211347
-30.656189762734 -62.4794161160116 -36.9616845284253
-30.7675712839532 -62.6840605956435 -37.2814065118145
-30.0458558441009 -62.219784458717 -34.3238511414742
-29.8486990499087 -62.1055698025954 -34.0514873189288
-29.5398170344381 -61.7617269448147 -34.2539481124725
-29.2254686549007 -61.5213995802067 -34.063166816478
-29.0052286113541 -61.2079132927749 -34.5015972405631
-28.7875694188262 -61.0739025136946 -34.2652356739952
-28.6635801358462 -60.8710849357379 -34.6577611314255
-29.8427635214744 -62.193295344378 -33.716769967686
-27.5022204281535 -62.5886821620091 -24.0081389815133
-27.2467473599221 -62.3210148352289 -23.8942375773388
-26.8007393194208 -61.869932710469 -24.3362735162844
-26.5443458209152 -61.6121846844228 -24.2207903418502
-26.0948316661541 -61.172938583296 -24.6616301301007
-25.8380882956157 -60.9250657101879 -24.5444486283019
-25.5012711871057 -60.6042271503221 -24.9322567462783
-25.3482587909916 -60.460714550769 -24.7668859018123
-25.1238409837669 -60.2518963079671 -25.1029327114444
-24.9632795834629 -60.1041731249046 -24.9404801181279
-27.8330757541988 -62.7863235241159 -25.3568837546043
-27.6369154793063 -62.691195006269 -24.6627863641576
-27.3479991900221 -62.4099679527777 -24.5567858165469
-26.9318364105194 -61.9618123177796 -24.9935229404864
-26.6400496081496 -61.6894444022511 -24.8869120443984
-26.2290323852151 -61.2615278146754 -25.3187467890898
-25.9402079417251 -61.0027700217665 -25.2089480492262
-25.6435809594867 -60.6960860830846 -25.5867657723152
-25.4613875754056 -60.5454160847482 -25.427255971166
-25.2732524825809 -60.3482582759626 -25.7547958791964
-25.0887182870564 -60.1982510987345 -25.5958434639406
-28.9554360851909 -62.9665827562994 -28.5591742722695
-30.4277083688222 -63.1301900397875 -32.5916839681913
-30.6210972622305 -63.5088619105751 -32.0501369105004
-29.8728763446975 -63.0617746906969 -31.051182072297
-29.445400062099 -62.7911707520819 -30.5798637318977
-29.1095662037411 -62.4173127750397 -30.7414694582516
-31.1054254792142 -63.0505414819652 -35.2824392043102
-31.3599733672856 -63.3112393801634 -35.3390234576232
-31.2473466264989 -63.1288704528676 -35.7853534119206
-31.4875058083539 -63.3939111859996 -35.8155786847718
-31.3578936052966 -63.2391649788538 -36.264060210755
-31.5810167294212 -63.5043992762187 -36.2562478612424
-31.6624786419839 -63.8028423856308 -37.0400204179672
-31.4300688120656 -63.3941626201711 -36.7339887061318
-31.6416981009381 -63.6684969276044 -36.7222270966062
-31.4638143850253 -63.5661571368275 -37.1504436809966
-31.349785201259 -64.8167813362296 -38.3264460277374
-31.1858401036931 -64.516607429375 -38.4048840147273
