# .PCD v.7 - Point Cloud Data file format
VERSION .7
FIELDS x y z
SIZE 4 4 4
TYPE F F F
COUNT 1 1 1
WIDTH 859
HEIGHT 1
VIEWPOINT 0 0 0 1 0 0 0
POINTS 859
DATA ascii
-28.5499259100164 -45.4945579353388 -60.2268492788331
-28.1400953572189 -45.3083841036145 -60.0907234219485
-27.3664496961969 -45.0225149482493 -59.8237667847501
-26.9494387498276 -44.8659295257925 -59.708350223934
-26.1444652551889 -44.6229594369055 -59.4694294512461
-25.7276085534923 -44.4909360811384 -59.3713705853584
-25.3207754122506 -44.3856789802391 -59.2530756140752
-25.7106502333547 -44.4517466466318 -59.3997091934204
-26.1169226883613 -44.5798740274156 -59.4953240994724
-26.8862296866874 -44.8101335940871 -59.7219660072052
-27.3018890464572 -44.9641657366968 -59.8369332657791
-28.0324215764151 -45.2295180804285 -60.0849036305502
-28.4536169408076 -45.4171510248894 -60.2232772259035
-28.962858281858 -45.6316834724593 -60.4212232998098
-29.2014475391423 -45.7628418111027 -60.5079593443312
-29.4945759943358 -45.9111048410013 -60.6444188820758
-29.7326717246768 -46.0635925255179 -60.7438511799414
-29.9992695816744 -46.227673121657 -60.885989280841
-30.2285327089343 -46.4100767729862 -61.0011759617406
-30.4568506440514 -46.5973364244946 -61.149816371126
-30.6594489298683 -46.8228049548674 -61.283465377026
-30.8348237166239 -47.0390226887559 -61.4358845274323
-30.9942671205063 -47.3136477838797 -61.5833428115385
-31.1123458433238 -47.5488731980563 -61.728360932439
-31.2242062219324 -47.8671361275413 -61.8784547196977
-31.2942244681932 -48.107825308685 -62.006852297236
-31.3634532831397 -48.4648202214465 -62.1511113966892
-31.3979464859875 -48.6976895771809 -62.258380773218
-31.4312680519293 -49.0875580808539 -62.3914011128318
-31.4420973962117 -49.305286882409 -62.4787122719349
-31.4460486663284 -49.7254571242779 -62.6000692227741
-31.4417557855647 -49.9243318150918 -62.671027369359
-31.4214862809963 -50.3706119916764 -62.7820875394401
-31.3877225141503 -50.7505701881996 -62.8879999458106
-30.5267217012948 -55.2652972286773 -64.0602422066315
-30.4197813950664 -55.6405550017531 -64.1931171795924
-30.2586823510725 -56.1701925976911 -64.411822475521
-30.1979384578295 -56.3443822562159 -64.5079231400315
-29.905834931456 -57.1639209757898 -64.9665823295276
-29.8329736797669 -57.3385797354625 -65.1009949653911
-29.7230474904868 -57.6123685305773 -65.294521420504
-29.6432365538565 -57.7847896955317 -65.4549531081686
-29.537524094105 -58.0217396251713 -65.6602826880572
-29.4498121876152 -58.1896284860382 -65.8531000233682
-29.3482184865719 -58.3927892233455 -66.0696368960887
-29.2530430943683 -58.5518278595146 -66.2975221723555
-29.1548754301398 -58.7255006679179 -66.5254608188475
-29.0548444009498 -58.8684765672942 -66.7854488488138
-28.9613999943956 -59.0120979403198 -67.021275995388
-28.8613232600464 -59.1292853143322 -67.304128387661
-28.7732552701147 -59.2419372210627 -67.5468082378568
-28.6756626379079 -59.3281874479647 -67.8480051238884
-28.5929008536263 -59.4093798154281 -68.0987574962856
-28.4992770266044 -59.4625267166176 -68.4147821674897
-28.4266248776894 -59.5141373489675 -68.6528312521271
-28.3260036417081 -59.5610248285635 -69.0009820466307
-28.3197682825022 -59.5828704157235 -69.0077287912585
-28.0516873921764 -59.69990203568 -69.9055387926305
-27.8278195101165 -59.771645227357 -70.6840052990748
-27.5929707137674 -59.8691263311997 -71.4654523721271
-27.3961962142559 -59.9196491765537 -72.0879401833358
-27.1988879341882 -60.011674552122 -72.6969680150845
-27.065718617018 -60.0645478854358 -73.1073395323668
-27.2455229106412 -60.0159102321979 -72.5430515409887
-27.3895343503603 -59.9651280428137 -72.0914170834737
-28.1112195917309 -59.6368132623359 -69.7413986737689
-26.89455602998 -60.1214730150609 -73.5879698092687
-26.7059994366846 -60.1621737725653 -74.1268694075177
-26.4322235854236 -60.2658435729877 -74.7957716283547
-26.2396565144432 -60.3037830450636 -75.2436934434423
-26.0887188176265 -60.3677492726697 -75.5659804886341
-25.9952198019083 -60.3967857653869 -75.7374948296846
-26.0324105488732 -60.4053316200779 -75.6486983122258
-25.8719699027914 -60.4146638060792 -75.9640663441387
-25.7518153491157 -60.4687091978787 -76.1471704051703
-25.6883052060526 -60.5092843406297 -76.2156836789869
-25.5407763204862 -60.549660141867 -76.423341081916
-25.3554119124535 -60.6060716123986 -76.6274868558021
-25.2247934503036 -60.6371507729566 -76.7692658145601
-24.9538620646686 -60.7004863738893 -76.9858487777001
-24.8662213852112 -60.6982287096691 -77.0713192418264
-24.5860617123634 -60.7346824480759 -77.2528109187493
-25.6042864635494 -60.509084999116 -76.3548278080994
-25.4900549901519 -60.5241920031507 -76.5098875450161
-25.2959263849389 -60.5958463064597 -76.7201797775908
-25.1066038980929 -60.6260873559251 -76.9025248501138
-24.3090208280474 -60.7941987046229 -77.3625587602583
-24.0010856532847 -60.8106387466256 -77.4791977150702
-23.7105629404961 -60.8515111558404 -77.5339337569152
-23.3912125360551 -60.8484864221092 -77.6030311032426
-23.1945179694089 -60.8771829015794 -77.6123328500195
-22.9923849293029 -60.8807261756062 -77.631710888778
-22.8650768249859 -60.902798113469 -77.6220160674464
-22.5661856603317 -60.8958784582654 -77.6357582430586
-22.2430834954812 -60.8877019183938 -77.635239816163
-21.9530398753627 -60.8538746235885 -77.6523067907277
-21.7480975335188 -60.8412330944392 -77.644930645471
-21.3230919708653 -60.7750603711955 -77.6264236155685
-21.057692781387 -60.773025955178 -77.5894533872443
-20.6537501677475 -60.7264400092128 -77.5484126784549
-20.5267260469227 -60.7297163262878 -77.5134788964394
-20.3788335177497 -60.6886466003105 -77.5145269634564
-20.0404786295602 -60.6095775949632 -77.4758995754617
-22.7736447248304 -60.8572796251523 -77.6608555215083
-22.4849062087351 -60.8720995200731 -77.65593110149
-22.1500901998823 -60.8408543989527 -77.672827805999
-18.6969024913424 -60.3475264689396 -77.2333753429691
-19.073635962048 -60.4516333667751 -77.2946415688837
-19.6139327820415 -60.5572382050907 -77.3923920120081
-19.3519467579048 -60.5235267704536 -77.3231264408533
-17.5134797711609 -60.0620465139998 -76.9719929648053
-17.9293564929196 -60.1883510913144 -77.0529097903203
-18.3227800700279 -60.2862139905357 -77.1409884813892
-18.0653148703255 -60.2424688577818 -77.0649993545486
-17.6479848953732 -60.1380844850456 -76.9662798612815
-17.1192432564717 -59.9951379370929 -76.8533407149556
-17.1206965096652 -59.9732177325145 -76.8711433827077
-21.4826983440405 -60.8391986784216 -77.6079604171468
-23.3309570888443 -60.8956113891658 -77.5784341934145
-23.6401548447264 -60.8768965727726 -77.5280034427176
-23.8541559751868 -60.8671648977599 -77.4800413177839
-24.2324992457192 -60.825339438825 -77.3693326771696
-24.4322587624067 -60.8038564378428 -77.2868332768557
-24.7826922756372 -60.7434077641086 -77.0993823398611
-28.4203895184834 -59.5359829361275 -68.659577996755
-28.4871192220372 -59.509597507435 -68.4242754601782
-28.586978408265 -59.4346050190854 -68.1015040443461
-28.6638022392027 -59.3837441037244 -67.8492525088639
-28.7673173167708 -59.2722686731651 -67.5453090747718
-28.8493101949037 -59.1947187458086 -67.2976711058874
-28.9553248825969 -59.0471999196939 -67.0163178766994
-29.0423756264181 -58.9425457232997 -66.7735183214195
-29.1484817674069 -58.7644678445493 -66.5184884101419
-29.2391806542727 -58.6336531729555 -66.2844097919367
-29.3407497092092 -58.435647360155 -66.0634969243755
-29.4346517588686 -58.2769646987535 -65.8403576733226
-29.5298324427211 -58.0662177010771 -65.6536803097248
-29.6286940785301 -57.872966863376 -65.4393132160497
-29.7161966665443 -57.6560676225158 -65.2854839067175
-29.819646940318 -57.4257547861564 -65.0819173556938
-29.8993590159496 -57.2073969345452 -64.9565422336168
-30.0231255493364 -56.8911549064963 -64.7403433733952
-30.9372781892527 -53.6543544212875 -63.5323769508954
-31.0482988284749 -53.1241794263924 -63.4089902438661
-31.1776745694385 -52.4194074518479 -63.2437306419861
-31.2523684035278 -51.922923352267 -63.1245696833807
-16.800699448678 -59.868500087 -76.8103907288895
-16.6763649475248 -59.8470089585637 -76.7716433470733
-16.6749046654766 -59.8689366354301 -76.7538789152398
-16.7977859134363 -59.9123479684449 -76.774823629304
-16.9221218612037 -59.9338344188989 -76.8135528231495
-16.9235751143972 -59.9119142143205 -76.8313554909015
-25.1982804646131 -44.307144100842 -59.268492905865
-25.2597822073479 -44.3349430772263 -59.2720983107663
-25.1974988563263 -44.3413552174128 -59.2344159050038
-25.2589800960481 -44.3692004369775 -59.2380558880292
-25.0737919930082 -44.3198776855434 -59.1930759258624
-25.012510823435 -44.280738047117 -59.2008687095879
-25.0747159440183 -44.274416602602 -59.2386032838279
-24.8855470370871 -44.3073218813001 -59.1229337403675
-24.7617954640845 -44.2753284069153 -59.093251215192
-24.7015939404025 -44.2440428941913 -59.0859456344753
-24.8819993430902 -44.3281705123613 -59.1149715222038
-24.7522372893986 -44.3177649828258 -59.0869895696661
-24.6285155948952 -44.2857178910126 -59.0573626973266
-24.8086739730226 -44.349823031471 -59.1048058061092
-24.6345260755843 -44.2641299461633 -59.0556621246889
-24.5777732521296 -44.2120472295123 -59.0561479558453
-24.5766810143819 -44.2216799241876 -59.049925550705
-24.5732323141546 -44.2424771281145 -59.0421341388319
-24.5706555813763 -44.2535851403611 -59.040511673665
-24.5647180221267 -44.2751922292337 -59.0422298825601
-24.5611381613134 -44.2856351333297 -59.0455173971075
-19.55500538472 -43.5005485655226 -58.2714823102695
-19.8554572820894 -43.5131839780145 -58.2814260389933
-19.6317162742277 -43.5421043722886 -58.262644577594
-19.8561038995993 -43.5598163934185 -58.2782526043966
-19.5582411018294 -43.5817025002054 -58.2661190611392
-20.303581520137 -43.5067512052118 -58.3197875628624
-20.6189097895248 -43.540685635773 -58.3432312387994
-20.616774197415 -43.5743284641916 -58.3404723491734
-21.095885211417 -43.6171268346949 -58.3978292515458
-21.4408032511661 -43.6769875513566 -58.4511765609367
-22.2446737866452 -43.7745749786291 -58.5710260017725
-22.7834740385507 -43.8857196215799 -58.6704259017856
-23.6441483398809 -44.0540666129687 -58.8396013753604
-24.1363778671748 -44.1854032996587 -58.9514129674123
-21.2087634654322 -43.5834445945502 -58.4251025621267
-21.5392405815143 -43.6346529447928 -58.4605182626802
-22.2490964559257 -43.7419860142728 -58.5745346043986
-22.7937568342849 -43.8213810278199 -58.6780438777267
-23.6525122776733 -44.0111898272951 -58.845315577585
-24.1517703660079 -44.1112864059621 -58.9616310669625
-24.074846193269 -44.132691357767 -58.9319875961605
-20.3011585157812 -43.5745760719132 -58.3146446426156
-15.0145924714885 -47.3823231165261 -59.0465788115517
-14.8579035214272 -47.6519692525381 -59.0927423606538
-15.0160429478165 -47.2832769330287 -59.0438294572183
-15.0011079085606 -47.2730176269977 -59.0604343423805
-14.764753959103 -47.7458323297501 -59.1485346361263
-14.5045188382365 -48.3142289518525 -59.2277235172309
-14.2524395519189 -48.8809522963941 -59.3375014278908
-14.1688284796353 -49.1395356260718 -59.3665526594739
-13.9617048693985 -49.670011989828 -59.4825911099485
-14.5827333613048 -48.2101065686095 -59.1885361269205
-14.3988125069392 -48.6601162273889 -59.265844667306
-13.442474756047 -50.910908637813 -59.8416389377965
-13.5587833834989 -50.5910163589302 -59.741412729685
-13.775624888652 -50.0695715661443 -59.5891192099017
-13.8045225481342 -49.9310071832991 -59.5753130276877
-14.0742136011644 -49.2728642773051 -59.4397336961515
-13.2612337677307 -51.3033016958013 -59.9831422135454
-13.1690365169912 -51.5578511970004 -60.0789627252665
-13.04944369668 -51.7992490897582 -60.1959583291227
-12.9314771872388 -52.1041582552053 -60.3324166899273
-12.8022849689534 -52.3698686277074 -60.484001097597
-12.7348135108197 -52.5504212801106 -60.5748428131294
-12.6874111955142 -52.6528806348479 -60.6364131559347
-12.6943458054408 -52.6571972567078 -60.6323173105611
-12.6943948044182 -52.6570932982024 -60.6322506044211
-12.6950569243685 -52.6556893599238 -60.6313537536853
-12.6772203234701 -52.6746356783409 -60.6501586016701
-12.7436761989525 -52.4623745384787 -60.5553290845995
-12.8335618764086 -52.2331068785861 -60.4470158587553
-13.0101371558508 -51.8356918023677 -60.2392295109483
-13.1120752695545 -51.5745036165624 -60.1396422436115
-13.2435790611233 -51.2835114027537 -60.0005505500649
-13.3547170039857 -50.9923718022174 -59.9128649023275
-13.488680338045 -50.6922698163822 -59.7952303576965
-13.649693774394 -50.2786034704322 -59.6852557473828
-12.7432643091388 -52.4198613718293 -60.5683573518009
-16.5141680012553 -59.8486455291098 -76.5763194094553
-16.3865088720356 -59.8239289637187 -76.5548830831797
-16.3789239368728 -59.8345477001091 -76.5747067806954
-16.4989942893985 -59.8698913086623 -76.6159851943064
-16.36977713764 -59.8376670254071 -76.6091001353154
-16.4912015533168 -59.8675062907727 -76.6507778108487
-16.3651464803919 -59.8248583905922 -76.6421273554562
-16.4883915210441 -59.8497537550399 -76.6816610610716
-24.8674858474717 -44.2058666727631 -59.305718738897
-24.8122667538882 -44.1828338598437 -59.2730366833543
-24.6886038791383 -44.1504975158031 -59.2432328428437
-24.6329071755778 -44.1273347871227 -59.2103850512831
-24.6374916746133 -44.1279392090502 -59.1906810340463
-24.6397974653887 -44.1360570942462 -59.172283419216
-24.7634759569224 -44.1683265028224 -59.2021875302512
-24.8271916730438 -44.1923502375128 -59.1986625739851
-24.8802355724219 -44.1919932753378 -59.2700490535644
-24.8848356882413 -44.1925307618009 -59.2504453068523
-24.6201590502613 -44.1412181951536 -59.2461582476217
-16.3697950913437 -59.7362379236912 -76.7190688063155
-16.4943511872259 -59.7609563953451 -76.753396693707
-16.373582437928 -59.7121814355783 -76.729533749449
-16.4990395413409 -59.7360353008484 -76.7610689619672
-16.3798601446573 -59.6865050541274 -76.7314600685324
-16.5059995125341 -59.7104943137378 -76.7600215599428
-12.6841549333967 -52.6789523002009 -60.6460627562965
-12.6842039323741 -52.6788483416954 -60.6459960501565
-12.6848660523244 -52.6774444034168 -60.6450991994207
-12.7778164900445 -52.7033787740314 -60.5906696923142
-12.7880073620886 -52.6816237305384 -60.5769242465788
-12.8347083803458 -52.5806514335863 -60.5163052317511
-12.9861591352343 -52.4665338041758 -60.3994592003968
-13.0154564839936 -52.1705932781979 -60.3064123741053
-13.2454826025471 -51.8531404096412 -60.1297711329451
-13.2810961261035 -51.5453074938908 -60.0387798449108
-13.4838451681767 -51.2783751673701 -59.910201740077
-13.5530265473807 -50.8985258124914 -59.8088813446838
-13.7291063954613 -50.6865717810713 -59.7190378846932
-13.8999260226267 -50.2690392373182 -59.6074903172923
-14.0147579720744 -50.4310688687999 -59.6080414526434
-14.2288197183684 -50.1501516816696 -59.5153070217933
-14.2543199711419 -50.4790730144893 -59.5344264589739
-14.4416178360851 -50.1927606868749 -59.4499516521615
-14.4407538486501 -50.5167258964692 -59.4451958516756
-14.6327374019191 -50.2310887048217 -59.3624731949621
-14.6103987514005 -50.5512427797967 -59.3515199986439
-14.7759665743732 -50.2598517939153 -59.2906985933991
-14.8203540317116 -50.5957186617167 -59.2416365032535
-15.0696443614261 -50.321269873793 -59.1595291856566
-15.2283344661609 -50.6839972229276 -59.0802940065301
-15.4890028305575 -50.4117891840644 -59.0303438004412
-15.6916323916554 -50.7878778983914 -58.9670476642333
-15.9570622099032 -50.5161362690415 -58.9448913151535
-16.1915202950382 -50.9000216223839 -58.9016354844167
-16.4373711913195 -50.6873928301347 -58.900074815511
-16.561948496599 -50.8679411944065 -58.8857049661111
-14.0262347827446 -49.7615414135392 -59.4905794692183
-14.302748623708 -49.3027786528229 -59.3796911366582
-14.3905016098841 -49.5293592894716 -59.4038675538821
-14.6109530198879 -49.2451113850895 -59.3332859490291
-14.6365689933154 -49.5795914496732 -59.3602506101279
-14.8279229037902 -49.2897119623948 -59.2945078516993
-14.8249552998289 -49.6172440079491 -59.3014862370195
-15.0183409862873 -49.3277035755757 -59.2377312823933
-14.9916909113503 -49.6501572865669 -59.2378968350912
-15.1573271679366 -49.3549760864561 -59.1900041331363
-15.1908931606742 -49.6902218058809 -59.1606985738472
-15.4333990520762 -49.4103019262801 -59.1000104168538
-15.5728186172247 -49.769141955329 -59.0488908225742
-15.8237848301283 -49.4915261087313 -59.0136474911581
-16.0053988617089 -49.8624317081168 -58.9729441199453
-16.2612577092895 -49.5860070761646 -58.959481375383
-16.4587719537651 -50.0270828448401 -58.9298679016856
-16.6478541484563 -49.9811153850185 -58.9258376644774
-16.7195578784096 -49.730038650352 -58.9365813376031
-16.7068713927596 -49.2146235940573 -58.9504432482232
-16.9009849038471 -49.1217768281866 -58.9514286369875
-17.1223517452092 -48.3699225131226 -58.9607081593166
-17.1191027130257 -47.8355456874055 -58.9578022915977
-16.7138772622876 -48.1492708904933 -58.9646189522275
-16.6945961213347 -47.7440306735228 -58.9613762911719
-16.3172748568518 -48.0656261768828 -58.9864554077561
-16.3251217282215 -47.667510111267 -58.9836583346402
-15.9713426343004 -47.9959715448998 -59.0285821983504
-16.006943626275 -47.6052624509439 -59.024325893508
-15.7314438046287 -47.9499163572699 -59.0702873167375
-15.6348042944069 -47.9309322412129 -59.0893470089443
-15.3535214718703 -48.5377413627022 -59.1469810428131
-15.1877584074927 -48.7691714895653 -59.1886570239421
-14.4682027376659 -48.7318298304287 -59.2709947852205
-14.6976371937657 -48.3914467213639 -59.2070990109572
-14.7526344898115 -48.678147639376 -59.2452137575419
-14.9507279155642 -48.4539093005052 -59.2015162151453
-15.0004003561153 -48.7309935589403 -59.2238456482039
-15.1668501733594 -48.4999935184842 -59.1817497750729
-14.9146173174674 -47.7674971718456 -59.1059207920717
-15.2280240378266 -47.4425415173118 -59.0664286480756
-15.2091373398775 -47.8422527279593 -59.1239093245645
-15.3629755924196 -47.8756310016594 -59.115585350388
-15.6651666490895 -47.5379998512511 -59.0648585653884
-16.5187103811746 -51.0201267473704 -58.8784191599309
-16.4830736360153 -51.1456871737632 -58.8722808309567
-16.2298639987398 -51.3843006893682 -58.8725127181664
-16.0165202265054 -51.4697969174249 -58.8829379016182
-15.712746704556 -51.2572594797905 -58.9342170169483
-15.5025715217984 -51.3409678477796 -58.9665641359656
-15.2207888445013 -51.1437943052437 -59.0493449893395
-15.0216101981506 -51.2300398913919 -59.1054946195764
-14.7798654900956 -51.0446915969995 -59.2185509543639
-14.5994040679482 -51.1354965220592 -59.3003943995582
-14.4743247865915 -50.9779145726578 -59.3843013536926
-14.3846378779862 -51.0884131700881 -59.4291342048457
-14.3287282895263 -50.9473785688744 -59.4790755065104
-14.2138687801844 -51.0524508041788 -59.5437941060414
-14.138596474365 -50.9081104593879 -59.5943892580189
-14.0293991380705 -51.0143360288377 -59.6531922005749
-13.9310608885534 -50.8662157710694 -59.68596383238
-13.7946649535726 -50.9669052773709 -59.748823532016
-16.1196352854423 -51.7594071599306 -58.8574809374064
-15.9061926186026 -51.833492113196 -58.8715871824643
-15.5929023769082 -51.6275902386795 -58.9293912656935
-15.3796119214265 -51.7095721961896 -58.967032866102
-15.090102419966 -51.509195391438 -59.060355366611
-14.8880032760618 -51.5935543844938 -59.123875914923
-14.639049632099 -51.4052038095075 -59.2508586130827
-14.4567240488366 -51.494145008162 -59.3420930227909
-14.3273915760807 -51.3349363181439 -59.4364616604195
-14.2381416821336 -51.4445663961322 -59.4857885342887
-14.1805284746973 -51.3031154833807 -59.5431796782458
-14.0663999242423 -51.4071193674854 -59.6148564938161
-13.9905428934349 -51.2626802577333 -59.6742738641676
-13.8826831623256 -51.3679274991065 -59.7396759605514
-13.7851434719804 -51.2202727765125 -59.7814539965947
-13.6504035346652 -51.3197886350916 -59.8529887446652
-16.0057256171673 -52.1470582078398 -58.8435449139382
-15.9248671728182 -52.4279953073799 -58.8336773488402
-15.6920141815535 -52.5476076481254 -58.8559261638722
-15.7569008289815 -52.988063698085 -58.8253450859755
-15.5184855898733 -53.1618824083066 -58.8541506648944
-15.6470529591247 -53.3957843248559 -58.8282433001119
-15.1437033300737 -53.1710291071962 -58.938513468258
-15.0067765504219 -52.9372470782666 -58.9890947496654
-15.1419293478254 -52.4456893475146 -58.9757750290043
-14.9017764862383 -52.0565784328762 -59.0807387237095
-14.6307455859909 -53.0330059265063 -59.124896348246
-14.4978153272661 -52.8029153469636 -59.2002256280231
-14.6336934301099 -52.3180455840855 -59.1693877241477
-14.4375946366711 -51.9439627343576 -59.3037593250694
-14.1606813576337 -52.9052230360284 -59.3859604874442
-14.0457392943206 -52.682814774455 -59.4863947852608
-14.1867744705142 -52.2064242356622 -59.4350315267615
-14.1166539887327 -51.866236587455 -59.5226920983522
-13.8602580454697 -52.63491154707 -59.6311579424512
-13.717047632663 -52.78384055023 -59.7536369612886
-13.6349951430396 -52.5734597501062 -59.8578320466308
-13.4406596653278 -52.7063087192844 -60.0403948377653
-13.4158975923739 -52.5146219535071 -60.078531135327
-13.2713404296006 -52.4788279914888 -60.1939703152726
-13.370439706259 -52.0087713503151 -60.0852570569603
-13.1170859771294 -52.6191375767928 -60.3315312175488
-13.5726115963038 -51.7423519022862 -59.9370527735142
-13.6012321667646 -52.0625247649319 -59.9294443323164
-13.7765637954711 -51.7876162203313 -59.803602267424
-15.3497403072513 -48.8010922486019 -59.1481625993093
-15.4870211855039 -48.563838142357 -59.1159673227922
-15.5371139375911 -48.8378021006105 -59.0971206996257
-15.7459355647413 -48.6145894094793 -59.0556969984134
-15.89318689213 -48.9094733885511 -59.0233433842254
-16.1107470903193 -48.6889715895874 -58.9990256572783
-16.2972038758983 -48.9945996778153 -58.9758670196487
-16.5230127833836 -48.7764944820811 -58.9665394311821
-13.9675410964541 -51.8316148282556 -59.6467826020761
-13.9601819535082 -52.1492811354736 -59.6120093505693
-13.7855646987922 -52.1068644397282 -59.7701262793001
-15.4176656391094 -52.1830421038839 -58.9255897197087
-16.2645378630331 -47.037808810854 -58.9790928251204
-16.4636993354901 -46.7857273052658 -58.9478245219407
-16.5918023529767 -46.7560914725709 -58.9352142760597
-16.8540555179455 -46.2574952216956 -58.8893905283134
-17.0465761547546 -46.0635252965826 -58.8654699870415
-17.2610737330134 -45.692756756049 -58.8236131785176
-17.3865226104434 -45.6119806643458 -58.8127475029435
-17.5509032332995 -45.3547146040891 -58.7784330779212
-17.6739671397781 -45.286799444423 -58.7695984437793
-17.8529276392125 -45.0490178365668 -58.73467204743
-17.9781318346366 -44.9870258103078 -58.7269382937492
-18.1708863923462 -44.7745420869358 -58.6934318154451
-18.2925330075697 -44.7212032892235 -58.6870393016974
-18.4936638718382 -44.5450592608895 -58.6579529138552
-18.6107976894199 -44.4975016069533 -58.6521274446095
-18.7641161526978 -44.3837203315348 -58.6326984108856
-18.8232724258118 -44.3671847482203 -58.6312685882187
-18.9001743393489 -44.3168121773315 -58.6223192354179
-18.9299087576161 -44.3104322507101 -58.6219970403295
-18.9684066396585 -44.2869604853393 -58.6177459149801
-18.9833065201849 -44.2842484931218 -58.6176942944249
-19.0095551801941 -44.270720700636 -58.6153800422798
-16.5322023299011 -46.49424616242 -58.9312954416753
-16.5633430430541 -46.3680989397941 -58.9210027528476
-16.648912223037 -46.3139160590511 -58.9095287607038
-16.8426623935948 -46.1068009510216 -58.8802340932228
-16.9758135002341 -45.8480378118863 -58.8514042896411
-16.9672004440284 -45.7893345816877 -58.8458623947797
-17.1705960560563 -45.5360827844782 -58.8093963797135
-17.3112190122519 -45.368270159093 -58.7842731808131
-17.4983333971206 -45.1706989073633 -58.753434845011
-17.6634237950268 -45.007179945954 -58.7272398678369
-17.8386196506368 -44.8564686479306 -58.7025243842861
-18.0290277931685 -44.7068914786324 -58.6778043805551
-18.1915227675477 -44.5992421136027 -58.6600703252381
-18.4027803223268 -44.478066730638 -58.6406703768855
-18.5517703480749 -44.4090478151987 -58.6302689177744
-18.7255608126674 -44.3382480369092 -58.6203425985265
-18.7485696588014 -44.347338442455 -58.6233559250949
-18.8100446172243 -44.3365312364304 -58.6232439992057
-18.887214534423 -44.2975916173659 -58.6169486703417
-18.8576527076917 -44.3031483138286 -58.6171051633418
-18.8134570226354 -44.3130898082402 -58.617750718404
-18.8921513168164 -44.2975525865051 -58.6171645412631
-19.0292379460362 -44.2792195228085 -58.6183785103467
-19.0257212363253 -44.288795474673 -58.6206636229129
-19.0222039884378 -44.2983707527743 -58.6229459305661
-19.01868813424 -44.3079485251425 -58.62522552966
-19.0151746415355 -44.3175271829492 -58.6275001649439
-19.0108217123885 -44.3281438499191 -58.6299929115302
-19.0059684978646 -44.3419942524967 -58.633285239381
-19.0024562568765 -44.3515769624436 -58.6355445390677
-18.9165890696497 -44.5856263256624 -58.686025161076
-18.9563154222893 -44.4721110217704 -58.662449904491
-18.9902503732147 -44.3824273319409 -58.6426669942466
-18.9897814091593 -44.3786512384719 -58.6417047384339
-19.0061539753564 -44.3339394797894 -58.6312597659824
-19.0104459692125 -44.3188853422505 -58.6276421983567
-19.0232160006152 -44.2891364770507 -58.620644252806
-18.772794082176 -44.9866899443496 -58.7624020189487
-18.78273585257 -44.9118783569039 -58.7497792407808
-18.8216217975207 -44.7912667596379 -58.726924704545
-18.827202066541 -44.7362782837264 -58.7154788427736
-18.9003187945398 -44.5558919865638 -58.6799666973451
-18.9167550510375 -44.4921923932351 -58.6658152653297
-18.9564119519615 -44.4018192134257 -58.6460297109509
-18.9648664065953 -44.3677363119989 -58.6379118952623
-18.9894556368105 -44.3245131085399 -58.6281632243646
-18.9949832649555 -44.3063772953578 -58.6238073058406
-19.0149911523842 -44.2815353745387 -58.6183606836177
-18.5412599073287 -45.6573055136503 -58.8556733878163
-18.6145728913701 -45.4174911470344 -58.8276262419288
-18.6397784507852 -45.2942936506799 -58.8115353294018
-18.5744535051582 -45.4629108384989 -58.8336956213821
-18.5072598871316 -45.5816024757323 -58.8483501175296
-18.4417607433551 -45.8210173037556 -58.8763607714849
-18.3717108246034 -45.932529202087 -58.8872099183045
-18.3159972610757 -46.1682427801493 -58.9093882197631
-18.2415364223552 -46.2781553181902 -58.9174823710274
-18.1894282685954 -46.5741785693389 -58.9388423335372
-18.0817311583937 -46.763552026018 -58.9481132479967
-18.051255454506 -46.9690390070155 -58.9605998721979
-18.0210853695602 -47.0666123818412 -58.964364019169
-18.0662806552644 -47.117058179623 -58.9686238144592
-18.0863530158688 -47.0519914145504 -58.9662726755437
-18.1065075508653 -46.9869613525884 -58.9636053019748
-18.2739661061795 -46.4662038079306 -58.9313885622745
-18.3558305943297 -46.1748859901194 -58.9110991943735
-18.4356413773403 -45.9421400331382 -58.889753421225
-18.0040065842627 -47.1726631384584 -58.9687898290425
-17.8752457470341 -47.2828558542664 -58.9670240345599
-17.7351381305609 -47.3557079987473 -58.9632541290468
-17.8033541552957 -47.4809152632468 -58.9717587436871
-17.9121804308412 -47.4358512355009 -58.9753308806646
-17.8371454003335 -47.5233369263435 -58.9749924236658
-17.9143435609769 -47.5059715660201 -58.9782153525702
-17.8716793170228 -47.5659575478008 -58.9783501860175
-17.91689166839 -47.5761974775132 -58.9810988382778
-17.784939294089 -47.1516274490921 -58.9570768715797
-17.649060854141 -47.3353407459592 -58.9586547573442
-17.62860857333 -47.1092907456345 -58.9484362775431
-17.3843961449403 -47.2704326430379 -58.9482829699022
-17.3030373866879 -47.020020377646 -58.935325129268
-17.0184628138205 -47.1798932050432 -58.9416017899078
-16.9915102097896 -46.9208488005831 -58.9301806227421
-16.6754903886735 -47.0868702034469 -58.9471580508902
-16.7074085489972 -46.8182421642951 -58.9342386003318
-19.0078775357134 -44.2666746742263 -58.6142810488938
-19.0118560249824 -44.2757946108436 -58.6167676979985
-19.0181017473761 -44.2857870032988 -58.6195743628129
-19.0209924748597 -44.2881176994823 -58.6202908263635
-19.0246166261721 -44.2893035242335 -58.6207443158898
-18.9798583011017 -44.2760314602288 -58.6154631109001
-18.9643108455374 -44.2770601589888 -58.6150646009738
-18.923124765827 -44.2943691107206 -58.6176696001422
-18.5855073766932 -44.4420851914955 -58.6386358060205
-18.4643927548018 -44.4808898851839 -58.6430031774528
-18.2509026347233 -44.6372027522902 -58.6687127990351
-18.1270226732174 -44.6865360652697 -58.6753784877093
-17.9218022354162 -44.8858674261744 -58.7078312578
-17.7958941872148 -44.9481506438056 -58.7172430990597
-17.179209112262 -45.5947860146767 -58.814938274575
-17.6039556845325 -45.1792162138641 -58.7529185228317
-17.4815907500483 -45.2510531793985 -58.7643947852321
-17.3030894213853 -45.5073276613267 -58.8007750158957
-18.7336933365827 -45.0529016869448 -58.7739486089693
-18.6719487682625 -45.1725241337297 -58.7922392837112
-18.6698386266466 -45.09529249532 -58.7785910302623
-18.6013712142713 -45.2117051897263 -58.7958007663778
-18.6142620786181 -45.0773966621929 -58.7724965598036
-18.5196746666735 -45.1800029099341 -58.786031807276
-18.5285109103226 -45.0304757875639 -58.759201865494
-18.4252076686702 -45.119474360224 -58.7702001427192
-18.4450864113734 -44.9507922179167 -58.7394191525742
-18.3239608626336 -45.012889849075 -58.7452692386452
-18.3567119250521 -44.8323464001552 -58.7118719079905
-18.2322521857729 -44.8822106009989 -58.7163888813893
-18.8778804236008 -44.6714097212615 -58.7046884896959
-18.9148024246644 -44.5578445008118 -58.6809977127799
-18.9430601662322 -44.4981202194653 -58.6683289195309
-18.9756105788107 -44.4084150036331 -58.6484864965907
-19.0132311331164 -44.3190739154359 -58.6278017741363
-18.0531652321759 -46.5733693271986 -58.9334884005279
-17.9366318241 -46.7584601479475 -58.941504712186
-17.8988786907544 -46.5281598473935 -58.9227289391937
-17.7267338799324 -46.6952771482134 -58.9280826187863
-17.6669682302418 -46.4436872572553 -58.9063071383434
-17.487484165387 -46.6072885892845 -58.913702956466
-17.4419023661512 -46.3303628810892 -58.8898321863626
-17.2305029834212 -46.4840502649906 -58.9000331919987
-17.2097096520441 -46.1858273864197 -58.8743073232603
-17.0026350387361 -46.3539978828603 -58.8915353034452
-18.2207183041182 -46.1498045110664 -58.904778270844
-18.1400442241406 -46.2556450633958 -58.911513385885
-18.0909551372701 -46.1106599976171 -58.8943939659179
-17.9663230119598 -46.198083960866 -58.8975932075686
-17.8975587048206 -46.0301780232536 -58.8766327760367
-17.7703487339246 -46.108664018823 -58.879993027219
-17.7107808869228 -45.9124945632821 -58.8556858872951
-17.5618185840042 -45.9705920935191 -58.8581292283161
-17.5198091947227 -45.7530307994396 -58.8313992419744
-17.3790996454925 -45.8145787084388 -58.8373763312824
-18.5140591907773 -45.4545863948739 -58.830776783497
-18.363149373698 -45.8079064806765 -58.8725676787956
-18.2866176919333 -45.9152692516151 -58.8820418800708
-18.2566181909046 -45.7751981889337 -58.8630529895601
-18.141629716219 -45.8647483826063 -58.8686699603661
-18.0970835690799 -45.7023131741632 -58.8453940320396
-17.9776446829919 -45.7803188515616 -58.8501576060595
-17.9431167637771 -45.5891518706616 -58.8224545665496
-17.803462938604 -45.6428415868128 -58.8246225966029
-17.7849875071149 -45.4304259132907 -58.793602475143
-17.6502960661521 -45.4825175956805 -58.7979357794935
-18.7645807978661 -44.8538609979031 -58.7369064208491
-18.931660526583 -44.4973152420256 -58.6677217822006
-18.968461513003 -44.4074456630348 -58.6479573647692
-18.9841538236628 -44.3782697059888 -58.6413908724084
-19.0026166478675 -44.3334518032888 -58.6309915466259
-18.4327232076449 -45.4291035440804 -58.8227044282967
-18.4399985960954 -45.5693785014867 -58.8441451979434
-18.3258744842187 -45.5275604605887 -58.8321380186381
-18.7969196517476 -44.7263292697477 -58.7118642915112
-18.7150683448748 -44.8334522396312 -58.7302446943501
-18.7483091217567 -44.6976714398496 -58.7032084865994
-18.6563390991491 -44.7920887400411 -58.7186304102709
-18.7010053837289 -44.6478552566286 -58.6898138906917
-18.5930559376056 -44.717560161844 -58.6996043557697
-18.6493450282443 -44.5710928272907 -58.6702793929033
-18.5341265644306 -44.6237814344436 -58.676696859053
-19.0067837478835 -44.3175564747594 -58.6271499389155
-18.9966360925595 -44.3305779421882 -58.6300086254637
-18.9767766818838 -44.3756492277636 -58.640416725535
-18.3095227015949 -45.3674583991027 -58.8064636748426
-18.1957202611418 -45.4526609190044 -58.814102717438
-18.8759771769202 -44.5450469622423 -58.6762852814202
-18.892751235658 -44.4769086661708 -58.6610267613713
-18.9419835644091 -44.3899711957368 -58.6424389295922
-18.953097782864 -44.3537145314168 -58.6338761243713
-18.9815082531951 -44.3133438344967 -58.6249931715175
-18.9883967865387 -44.2951467074626 -58.6206769907455
-18.8469344873672 -44.5224101738947 -58.6695695637116
-19.0008605928525 -44.3135247243913 -58.625872939982
-18.1902796794773 -45.2667745112841 -58.7836892713857
-18.0571150682007 -45.3252597855429 -58.7872775464775
-18.8691749327834 -44.4499397509964 -58.6534020819783
-18.8152158517527 -44.4809675335387 -58.6582244852869
-18.8430938037326 -44.4078570279493 -58.6420157132546
-18.7851724263476 -44.4282774164859 -58.6442801557929
-18.0663365120777 -45.1212393241775 -58.7533744871358
-17.933862776165 -45.1727157357741 -58.7575313857481
-18.926105899529 -44.3681815789524 -58.6362964744171
-18.9399812362297 -44.3317367666078 -58.6277851150632
-18.9738616529082 -44.2990725920381 -58.6210485842454
-18.910928221464 -44.3403844330624 -58.628681950592
-23.7315243598837 -44.2535995280695 -58.9529165160684
-24.1130872658722 -44.4625200696028 -59.107310465976
-24.0397027409827 -44.6005131340657 -59.1788680493065
-24.3574082354281 -44.7664484073034 -59.2837127287161
-23.7896760946344 -44.7558243439078 -59.2132382638594
-23.471970600189 -44.5898890706701 -59.1083935844498
-22.6665132610315 -44.4978411484368 -58.9803230781261
-22.545975072813 -44.3888313461229 -58.9259532730425
-21.7975273544842 -44.3350967900889 -58.8326914068941
-21.6104605769937 -44.2241392668786 -58.7732759880813
-20.9125611112203 -44.2115016263228 -58.712884437341
-20.3512876483418 -44.181800827622 -58.6654448365554
-19.5453201078291 -44.1404197017376 -58.5965524165377
-19.8617922657211 -44.0661295158169 -58.5853526850603
-20.3730173026829 -44.106197373361 -58.6362324330258
-20.7879849890345 -43.9029744338419 -58.5470744692205
-21.3383819642098 -43.8233337625143 -58.528734661839
-19.5193882702082 -44.1421589754293 -58.5957130622518
-19.493468862737 -44.1440917744207 -58.5949464092724
-19.46756404827 -44.1462340999594 -58.5942549530183
-19.4416766818305 -44.1486111825345 -58.5936455931986
-19.4158151440168 -44.1512590162651 -58.5931252678411
-19.4423354872608 -44.0719097436764 -58.5630295523159
-19.2177968275267 -44.1593707480471 -58.5850978490283
-19.1920033138284 -44.1626266478473 -58.5847769873482
-19.1662460192909 -44.166164275437 -58.5845478978673
-19.1405157636721 -44.1699029878467 -58.5843862768574
-19.1756162671687 -44.0572361093906 -58.5367215919227
-19.5070666515103 -43.6986378076419 -58.3415385647713
-19.498204892173 -43.8309910902146 -58.4301026392644
-19.713400342948 -43.8526593367103 -58.4559281169677
-20.1666232058652 -43.72365279603 -58.3986798979249
-20.2767599520727 -43.8629065762977 -58.4961947212551
-21.9030875012836 -44.0413306031129 -58.6958588319989
-22.5443090401455 -44.0061290349061 -58.7177006311096
-23.0001298341845 -44.2426722547057 -58.8883796533404
-15.6513106039605 -46.2779139622578 -58.8710277628206
-15.680319603171 -46.3540706864883 -58.8993709109199
-15.6101689981222 -46.7348787994493 -58.9701549557012
-15.9603671530739 -46.4309686620428 -58.9458358921316
-16.113215180907 -46.4792486107176 -58.9598037053345
-16.437816259978 -45.9882312540832 -58.8949501409758
-16.6155747463278 -45.8634839612002 -58.8749659561
-16.7673914189105 -45.5427484782855 -58.8222979827671
-16.9448366950087 -45.4387301505235 -58.8049315150512
-17.116397278438 -45.141127678263 -58.7476451502275
-17.2906139491198 -45.0608935196775 -58.7351527279219
-17.4841872133739 -44.7917118731655 -58.6758957706195
-17.6515982667843 -44.7371990402917 -58.6703692591289
-17.8683217424319 -44.5019078571798 -58.6125130300068
-18.0251626552283 -44.4734898964061 -58.6154114449551
-18.2652490184901 -44.2770188837116 -58.5629463251743
-18.4082942100245 -44.2736498301186 -58.5748106998908
-18.6339352674668 -44.127079390624 -58.5326713145543
-18.7285754346704 -44.1544643145524 -58.5537467024093
-18.9442870403505 -44.0357240887705 -58.5142261661456
-19.0089336162632 -44.1190265609102 -58.5533973318625
-15.9718483957188 -45.7637807562993 -58.7850015471714
-16.1485180034175 -45.519332441208 -58.7372621345307
-16.3546370766737 -45.2547266696887 -58.6829334218734
-16.5725749481701 -45.0026441722194 -58.6252445421808
-16.7801175751178 -44.7861063644144 -58.5737802604816
-17.048348678401 -44.5395348322172 -58.5081792978609
-17.2543881116844 -44.3747493803019 -58.4636829418033
-17.5834338901054 -44.1511926232207 -58.3972766058613
-17.7815799856167 -44.0395278105599 -58.3649859633185
-18.1332469236724 -43.8760894790283 -58.3166956783178
-18.1553474080383 -43.9348808641448 -58.3575678338022
-18.3427099686384 -43.9240273939755 -58.3783262529218
-18.2131023927583 -44.1020959727769 -58.4690818006142
-18.3799854203949 -44.0994174051436 -58.4892811520546
-18.3596769412144 -43.7937809728354 -58.2919535382215
-18.6768832013224 -43.7027334775835 -58.270379201818
-18.6378157443805 -43.774188513607 -58.315879761034
-18.7660007731016 -43.8005061796019 -58.3501292814922
-18.6377780249961 -43.947666492337 -58.4327751248204
-18.7486826805336 -43.9786975314104 -58.4643009126037
-18.9579003855778 -43.6531704061758 -58.2631352670996
-19.0413805465423 -43.6947459642327 -58.3028860343242
-19.1314744129621 -43.780669837638 -58.371710771938
-18.9669992950589 -43.9174610920807 -58.4504798068892
-18.8177767526677 -44.3122932656985 -58.617745040485
-18.8691291114636 -44.2895605536022 -58.6141607152033
-18.8776480235324 -44.2463101454044 -58.6006325107598
-18.7098840283716 -44.2892251938086 -58.6043001493461
-18.6254580154223 -44.2806818350964 -58.5965855067126
-18.4211832552954 -44.4079095145048 -58.6223491042312
-18.2986596171012 -44.4282624334555 -58.6216496852644
-18.0762671473271 -44.6030167286131 -58.655957374612
-17.9458153769886 -44.6448751379708 -58.6615835090192
-17.7379989288928 -44.8563877894879 -58.7009098622424
-17.6006227314849 -44.9202937310352 -58.7125940273005
-17.4073455904137 -45.1648516296512 -58.7542479313619
-17.264747861459 -45.2509385854197 -58.7712801204928
-17.0854054748603 -45.5245231275975 -58.8128013014659
-16.9397109790918 -45.6320805341158 -58.8339602737188
-16.7729246939992 -45.9308672272597 -58.873268500144
-16.6262337373335 -46.058252326582 -58.8969077148093
-16.3815814547529 -46.5489898171109 -58.9479648547441
-16.0463213846762 -46.8452388083633 -58.9908766603935
-18.6499203098651 -44.3598045604476 -58.6225729985621
-18.4677070277389 -44.4422379853107 -58.6348950125875
-18.3234448891221 -44.5126081980905 -58.6457771978637
-18.0960232093308 -44.6560863084475 -58.6692866174787
-17.9745409662083 -44.7395928610734 -58.6831880901399
-17.8633369808976 -44.8127008726427 -58.695314626296
-17.9786244751122 -44.722989154455 -58.6800404598874
-17.6254936885625 -45.0365419854867 -58.7321695918101
-17.6485203899581 -45.0039909825283 -58.7271261083751
-17.7531632050167 -44.9042410983179 -58.7105578942439
-17.2721324512034 -45.4047398752556 -58.790215849605
-17.3123835012623 -45.3455516085489 -58.7818509275901
-17.4137345013602 -45.2293541447429 -58.7636704767749
-16.9270601694544 -45.833187713695 -58.8525951380005
-16.9839622215909 -45.7418411988866 -58.8410334599061
-17.0821366954179 -45.6105378145558 -58.8221827112591
-16.590375252666 -46.3169651017091 -58.9155302256865
-16.663361182832 -46.1885291023996 -58.9014001631816
-16.7585745970286 -46.0433759895743 -58.8827646480713
-16.5466512896961 -46.3688592057686 -58.9231668441532
-16.3546604661461 -46.6932813359659 -58.9576539991447
-17.64947347014 -44.1882837295871 -58.4305695211377
-17.8450899873682 -44.1447197044452 -58.4390003765563
-17.7608752332672 -44.3398856736176 -58.5305255538473
-17.9415250780572 -44.3081154121186 -58.5398485587856
-17.1794773140319 -44.519331674057 -58.5228929990102
-17.3764165769762 -44.4445308360031 -58.5220702208875
-17.3314187051688 -44.6492720887962 -58.6086920590178
-17.5202608442316 -44.5881909515525 -58.6087165365591
-16.7491822665295 -44.9143694451542 -58.6225998425959
-16.9425025721601 -44.8123802067122 -58.6162089371821
-16.9291515335649 -45.0213344488568 -58.6950578154254
-17.1211284036293 -44.9330271689947 -58.6883637153838
-16.3574860540687 -45.3588600048532 -58.7209549831066
-16.5444886169768 -45.2350405881237 -58.7120856855282
-16.555632521318 -45.445170186712 -58.782342682674
-16.7469751322755 -45.3334532858872 -58.7717057179849
-16.3982903216033 -45.7792126719935 -58.852919132332
-16.2100363432165 -45.909845569155 -58.8653339959428
-16.0646113045979 -45.8649420209375 -58.8346103383289
-16.1141794843877 -45.6791988471148 -58.7852814998297
-16.8641686789107 -45.9027191010128 -58.8633236580715
-17.1895436942608 -45.4851022483173 -58.8032210430792
-17.5226677297057 -45.1203331992526 -58.7461267869608
-18.089828460423 -44.6498811428857 -58.6679139237312
-18.3099947708321 -44.5095557980932 -58.6445302574227
-18.4221289564088 -44.4557894059239 -58.6362950042163
-18.6177434538214 -44.3626864810477 -58.6218284936584
-18.701272668661 -44.3370718483514 -58.6189886732804
-16.3041435601965 -59.7715969322569 -76.6640930155734
-16.426998932832 -59.8150054764597 -76.6851477447583
-16.5513090052751 -59.8364891381017 -76.7239869537246
-16.5527692873234 -59.8145614612353 -76.7417513855581
-16.4299050523341 -59.771155648165 -76.7207130508261
-16.3055893976503 -59.7496747808286 -76.6818938898078
-24.8892862202377 -44.2483866327405 -59.1710666746999
-24.7650987341944 -44.2390894162083 -59.1184923084753
-24.6416142771097 -44.1956719534208 -59.1000483645862
-24.6421008059487 -44.1727822050379 -59.1227104946405
-24.7660264882234 -44.193519428637 -59.1639493120437
-19.0991687023168 -43.6221589721447 -58.2565405010813
-18.9376480099445 -43.6233128061745 -58.2503126886504
-19.1723327840856 -43.5651443131053 -58.2442832219057
-19.170437197088 -43.5420357304288 -58.251549219208
-18.9279491758617 -43.5663419276653 -58.2604871694333
-18.6509406246623 -43.6274743804615 -58.257213359851
-18.4516712716657 -43.6601314471071 -58.2772522699515
-18.3021207290862 -43.7230488308468 -58.2819429928968
-18.1084468163968 -43.7752538609739 -58.3109727520226
-17.9304214938991 -43.8713981443199 -58.3272835729382
-17.6439877485243 -44.0073763404287 -58.3841006470377
-17.4449794583822 -44.1418545292527 -58.411958466448
-17.1890314996231 -44.3226900379466 -58.4657077380296
-17.2082429216092 -44.3516300727845 -58.4583242401433
-17.0417992196452 -44.5161227751706 -58.5025512324325
-18.2470280193063 -43.8075781686804 -58.294051497881
-18.4265984579562 -43.723543109517 -58.2698745831792
-18.6587438717475 -43.6613366762941 -58.2543048763704
-17.9445249679387 -43.9032281733562 -58.3224307285143
-17.67730264455 -44.0681464043029 -58.3718643047276
-17.4641908803683 -44.1707945640906 -58.4045749685618
-16.7816190467845 -44.7225503631097 -58.5598184203671
-16.5806258785925 -44.9625002279613 -58.6169107674946
-16.3837582374993 -45.1539814497483 -58.6637477586289
-16.1695882338208 -45.4587311655256 -58.7264102459723
-15.92835994523 -45.7688420800326 -58.7880375398574
-15.5867519230684 -46.3435765616734 -58.8849156440649
-15.3335911160045 -46.7422219484469 -58.9501905040185
-15.3129463333189 -46.7304797108082 -58.9565110681771
-15.4131802248765 -46.5123359768729 -58.9405650680718
-15.649003350382 -46.09897694834 -58.8829732637191
-15.2468305558736 -46.7793263874575 -58.9985591278774
-15.901577675292 -45.7482875702273 -58.8018068249125
-16.1174806866439 -45.4151154714189 -58.752137726645
-16.3584329602604 -45.1309202654469 -58.6757059542464
-16.5324247434358 -44.9135587750882 -58.638720179606
-16.7587431888667 -44.6966700945381 -58.5696696368609
-16.9997119397413 -44.461302471761 -58.5197859468126
-24.5790543722063 -44.1909553837468 -59.0736882735497
-24.1649172999362 -44.0806578354769 -58.9934094981648
-23.7689997785436 -43.9634493683024 -58.9274525056215
-22.9691029041239 -43.7817467480681 -58.7745779991275
-22.5267838149409 -43.7104861374809 -58.6820048370023
-21.7308910382082 -43.5751327394722 -58.5608246736853
-21.2585305281957 -43.5281096584756 -58.483040079959
-20.6791038385468 -43.4568828826204 -58.4177245936643
-20.3964962674434 -43.4511265636887 -58.3783508494306
-20.0416448487888 -43.429347128891 -58.3581437765327
-19.7440016840016 -43.4410872674879 -58.3279417382223
-19.399913493045 -43.4449299630434 -58.3224405389187
-19.0883725496448 -43.4852339582652 -58.3067586017109
-18.7603640814388 -43.526541883274 -58.3209142526358
-18.4414358245168 -43.6149498557135 -58.3283503852305
-18.1393397004913 -43.7059401026201 -58.3653654568911
-17.8249406089644 -43.8560177842753 -58.3981510040613
-17.5615609249154 -43.9912436388037 -58.4509925231153
-17.2624863601587 -44.2014880764346 -58.5016425086278
-17.0409451332899 -44.3657841340665 -58.5595981827503
-16.759291649286 -44.6305516877218 -58.6189558141404
-16.5780008094025 -44.8069073616571 -58.6740952253211
-16.3136170589376 -45.1185422917665 -58.7350910822029
-16.1662950318044 -45.2948621367809 -58.7841924701902
-15.915508854235 -45.6481158566812 -58.8439295893859
-15.7957199865623 -45.8167466214154 -58.8869783097239
-15.5559173984309 -46.2053929042953 -58.9449437799224
-15.3596333663873 -46.5427251962814 -59.0115610547806
-15.1722370563333 -46.8815446869884 -59.0497713899379
-15.0307513504826 -47.1506421490491 -59.0928856788369
-14.8169089256741 -47.6081329931694 -59.1496069353735
-14.5923738929395 -48.0652793693642 -59.232528374436
-14.2933791757853 -48.7255213720001 -59.3567651450913
-14.1624836452397 -49.0137848641037 -59.4334977180835
-13.8699036561836 -49.6949957008583 -59.6017456948296
-13.7932016136895 -49.8898076710306 -59.6288526331647
-13.6492125077525 -50.2355424287131 -59.7210131962126
-13.628865752986 -50.2973116590743 -59.7188887399947
-13.4328089389362 -50.7724810886276 -59.8682631048347
-23.7387255314855 -43.991356163017 -58.887574696718
-22.9004889209099 -43.8028870852553 -58.7290445420495
