# .PCD v.7 - Point Cloud Data file format
VERSION .7
FIELDS x y z
SIZE 4 4 4
TYPE F F F
COUNT 1 1 1
WIDTH 890
HEIGHT 1
VIEWPOINT 0 0 0 1 0 0 0
POINTS 890
DATA ascii
-460.238785950894 342.336296882206 281.848930423875
-460.357925829257 343.065980368961 281.810486269757
-458.554107507138 336.623189235184 282.249754501288
-458.673247385501 337.352872721939 282.211310347169
-458.792387263864 338.082556208694 282.172866193051
-458.911527142227 338.812239695449 282.134422038932
-459.03066702059 339.541923182204 282.095977884813
-459.149806898953 340.271606668959 282.057533730695
-459.268946777316 341.001290155714 282.019089576576
-459.388086655679 341.730973642469 281.980645422457
-459.507226534042 342.460657129224 281.942201268339
-459.626366412405 343.190340615979 281.90375711422
-457.822548090286 336.747549482203 282.343025345751
-457.941687968649 337.477232968958 282.304581191632
-458.060827847012 338.206916455713 282.266137037514
-458.179967725375 338.936599942468 282.227692883395
-458.299107603738 339.666283429223 282.189248729276
-458.418247482101 340.395966915978 282.150804575158
-458.537387360464 341.125650402733 282.112360421039
-458.656527238827 341.855333889488 282.07391626692
-458.77566711719 342.585017376243 282.035472112802
-458.894806995552 343.314700862998 281.997027958683
-457.090988673434 336.871909729222 282.436296190214
-457.210128551797 337.601593215977 282.397852036095
-457.32926843016 338.331276702732 282.359407881977
-457.448408308523 339.060960189487 282.320963727858
-457.567548186886 339.790643676242 282.28251957374
-457.686688065249 340.520327162997 282.244075419621
-457.805827943611 341.250010649752 282.205631265502
-457.924967821974 341.979694136507 282.167187111384
-458.044107700337 342.709377623262 282.128742957265
-458.1632475787 343.439061110017 282.090298803146
-456.359429256582 336.99626997624 282.529567034677
-456.478569134945 337.725953462995 282.491122880559
-456.597709013308 338.45563694975 282.45267872644
-456.716848891671 339.185320436505 282.414234572321
-456.835988770033 339.915003923261 282.375790418203
-456.955128648396 340.644687410016 282.337346264084
-457.074268526759 341.374370896771 282.298902109965
-457.193408405122 342.104054383526 282.260457955847
-457.312548283485 342.833737870281 282.222013801728
-457.431688161848 343.563421357036 282.183569647609
-455.62786983973 337.120630223259 282.62283787914
-455.747009718092 337.850313710014 282.584393725022
-455.866149596455 338.579997196769 282.545949570903
-455.985289474818 339.309680683524 282.507505416785
-456.104429353181 340.039364170279 282.469061262666
-456.223569231544 340.769047657034 282.430617108547
-456.342709109907 341.498731143789 282.392172954429
-456.46184898827 342.228414630544 282.35372880031
-456.580988866633 342.958098117299 282.315284646191
-456.700128744996 343.687781604054 282.276840492073
-454.896310422877 337.244990470278 282.716108723604
-455.01545030124 337.974673957033 282.677664569485
-455.134590179603 338.704357443788 282.639220415366
-455.253730057966 339.434040930543 282.600776261248
-455.372869936329 340.163724417298 282.562332107129
-455.492009814692 340.893407904053 282.52388795301
-455.611149693055 341.623091390808 282.485443798892
-455.730289571418 342.352774877563 282.446999644773
-455.849429449781 343.082458364318 282.408555490654
-455.968569328144 343.812141851073 282.370111336536
-454.164751006025 337.369350717297 282.809379568067
-454.283890884388 338.099034204052 282.770935413948
-454.403030762751 338.828717690807 282.732491259829
-454.522170641114 339.558401177562 282.694047105711
-454.641310519477 340.288084664317 282.655602951592
-454.76045039784 341.017768151072 282.617158797473
-454.879590276203 341.747451637827 282.578714643355
-454.998730154566 342.477135124582 282.540270489236
-455.117870032929 343.206818611337 282.501826335118
-455.237009911292 343.936502098092 282.463382180999
-453.433191589173 337.493710964315 282.90265041253
-453.552331467536 338.22339445107 282.864206258411
-453.671471345899 338.953077937825 282.825762104293
-453.790611224262 339.68276142458 282.787317950174
-453.909751102625 340.412444911336 282.748873796055
-454.028890980988 341.142128398091 282.710429641937
-454.148030859351 341.871811884846 282.671985487818
-454.267170737714 342.601495371601 282.633541333699
-454.386310616077 343.331178858356 282.595097179581
-454.50545049444 344.060862345111 282.556653025462
-452.701632172321 337.618071211334 282.995921256993
-452.820772050684 338.347754698089 282.957477102874
-452.939911929047 339.077438184844 282.919032948756
-453.05905180741 339.807121671599 282.880588794637
-453.178191685773 340.536805158354 282.842144640518
-453.297331564136 341.266488645109 282.8037004864
-453.416471442499 341.996172131864 282.765256332281
-453.535611320862 342.725855618619 282.726812178163
-453.654751199224 343.455539105374 282.688368024044
-453.773891077587 344.185222592129 282.649923869925
-451.970072755469 337.742431458353 283.089192101456
-452.089212633832 338.472114945108 283.050747947338
-452.208352512195 339.201798431863 283.012303793219
-452.327492390558 339.931481918618 282.9738596391
-452.446632268921 340.661165405373 282.935415484982
-452.565772147283 341.390848892128 282.896971330863
-452.684912025646 342.120532378883 282.858527176744
-452.804051904009 342.850215865638 282.820083022626
-452.923191782372 343.579899352393 282.781638868507
-453.042331660735 344.309582839148 282.743194714388
-451.238513338617 337.866791705372 283.182462945919
-451.35765321698 338.596475192127 283.144018791801
-451.476793095343 339.326158678882 283.105574637682
-451.595932973705 340.055842165637 283.067130483563
-451.715072852068 340.785525652392 283.028686329445
-451.834212730431 341.515209139147 282.990242175326
-451.953352608794 342.244892625902 282.951798021207
-452.072492487157 342.974576112657 282.913353867089
-452.19163236552 343.704259599412 282.87490971297
-452.310772243883 344.433943086167 282.836465558852
-450.506953921765 337.99115195239 283.275733790383
-450.626093800127 338.720835439145 283.237289636264
-450.74523367849 339.4505189259 283.198845482145
-450.864373556853 340.180202412655 283.160401328027
-450.983513435216 340.90988589941 283.121957173908
-451.102653313579 341.639569386165 283.083513019789
-451.221793191942 342.36925287292 283.045068865671
-451.340933070305 343.098936359675 283.006624711552
-451.460072948668 343.82861984643 282.968180557433
-451.579212827031 344.558303333186 282.929736403315
-449.775394504912 338.115512199409 283.369004634846
-449.894534383275 338.845195686164 283.330560480727
-450.013674261638 339.574879172919 283.292116326608
-450.132814140001 340.304562659674 283.25367217249
-450.251954018364 341.034246146429 283.215228018371
-450.371093896727 341.763929633184 283.176783864252
-450.49023377509 342.493613119939 283.138339710134
-450.609373653453 343.223296606694 283.099895556015
-450.728513531816 343.952980093449 283.061451401896
-450.847653410179 344.682663580204 283.023007247778
-449.04383508806 338.239872446428 283.462275479309
-449.162974966423 338.969555933183 283.42383132519
-449.282114844786 339.699239419938 283.385387171071
-449.401254723149 340.428922906693 283.346943016953
-449.520394601512 341.158606393448 283.308498862834
-449.639534479875 341.888289880203 283.270054708716
-449.758674358238 342.617973366958 283.231610554597
-449.877814236601 343.347656853713 283.193166400478
-449.996954114964 344.077340340468 283.15472224636
-450.116093993327 344.807023827223 283.116278092241
-448.312275671208 338.364232693447 283.555546323772
-448.431415549571 339.093916180202 283.517102169653
-448.550555427934 339.823599666957 283.478658015535
-448.669695306297 340.553283153712 283.440213861416
-448.78883518466 341.282966640467 283.401769707297
-448.907975063023 342.012650127222 283.363325553179
-449.027114941386 342.742333613977 283.32488139906
-449.146254819749 343.472017100732 283.286437244941
-449.265394698112 344.201700587487 283.247993090823
-449.384534576474 344.931384074242 283.209548936704
-447.580716254356 338.488592940465 283.648817168235
-447.699856132719 339.21827642722 283.610373014116
-447.818996011082 339.947959913975 283.571928859998
-447.938135889445 340.67764340073 283.533484705879
-448.057275767808 341.407326887485 283.49504055176
-448.176415646171 342.13701037424 283.456596397642
-448.295555524533 342.866693860995 283.418152243523
-448.414695402897 343.59637734775 283.379708089405
-448.533835281259 344.326060834505 283.341263935286
-448.652975159622 345.05574432126 283.302819781167
-446.849156837504 338.612953187484 283.742088012698
-446.968296715867 339.342636674239 283.70364385858
-447.08743659423 340.072320160994 283.665199704461
-447.206576472593 340.802003647749 283.626755550342
-447.325716350955 341.531687134504 283.588311396224
-447.444856229318 342.261370621259 283.549867242105
-447.563996107681 342.991054108014 283.511423087986
-447.683135986044 343.720737594769 283.472978933868
-447.802275864407 344.450421081524 283.434534779749
-447.92141574277 345.180104568279 283.39609062563
-446.117597420652 338.737313434503 283.835358857161
-446.236737299015 339.466996921258 283.796914703043
-446.355877177378 340.196680408013 283.758470548924
-446.47501705574 340.926363894768 283.720026394805
-446.594156934103 341.656047381523 283.681582240687
-446.713296812466 342.385730868278 283.643138086568
-446.832436690829 343.115414355033 283.604693932449
-446.951576569192 343.845097841788 283.566249778331
-447.070716447555 344.574781328543 283.527805624212
-447.189856325918 345.304464815298 283.489361470094
-445.386038003799 338.861673681521 283.928629701625
-445.505177882162 339.591357168276 283.890185547506
-445.624317760525 340.321040655032 283.851741393387
-445.743457638888 341.050724141787 283.813297239269
-445.862597517251 341.780407628542 283.77485308515
-445.981737395614 342.510091115297 283.736408931031
-446.100877273977 343.239774602052 283.697964776913
-446.22001715234 343.969458088807 283.659520622794
-446.339157030703 344.699141575562 283.621076468675
-446.458296909066 345.428825062317 283.582632314557
-444.654478586947 338.98603392854 284.021900546088
-444.77361846531 339.715717415295 283.983456391969
-444.892758343673 340.44540090205 283.94501223785
-445.011898222036 341.175084388805 283.906568083732
-445.131038100399 341.90476787556 283.868123929613
-445.250177978762 342.634451362315 283.829679775494
-445.369317857125 343.36413484907 283.791235621376
-445.488457735488 344.093818335825 283.752791467257
-445.607597613851 344.82350182258 283.714347313138
-445.726737492214 345.553185309335 283.67590315902
-443.922919170095 339.110394175559 284.115171390551
-444.042059048458 339.840077662314 284.076727236432
-444.161198926821 340.569761149069 284.038283082314
-444.280338805184 341.299444635824 283.999838928195
-444.399478683547 342.029128122579 283.961394774076
-444.51861856191 342.758811609334 283.922950619958
-444.637758440273 343.488495096089 283.884506465839
-444.756898318636 344.218178582844 283.84606231172
-444.876038196999 344.947862069599 283.807618157602
-444.995178075362 345.677545556354 283.769174003483
-443.191359753243 339.234754422578 284.208442235014
-443.310499631606 339.964437909333 284.169998080895
-443.429639509969 340.694121396088 284.131553926777
-443.548779388332 341.423804882843 284.093109772658
-443.667919266695 342.153488369598 284.054665618539
-443.787059145058 342.883171856353 284.016221464421
-443.906199023421 343.612855343108 283.977777310302
-444.025338901784 344.342538829863 283.939333156183
-444.144478780146 345.072222316618 283.900889002065
-444.263618658509 345.801905803373 283.862444847946
-442.459800336391 339.359114669596 284.301713079477
-442.578940214754 340.088798156351 284.263268925358
-442.698080093117 340.818481643106 284.22482477124
-442.81721997148 341.548165129861 284.186380617121
-442.936359849843 342.277848616616 284.147936463003
-443.055499728205 343.007532103371 284.109492308884
-443.174639606568 343.737215590127 284.071048154765
-443.293779484931 344.466899076882 284.032604000647
-443.412919363294 345.196582563637 283.994159846528
-443.532059241657 345.926266050392 283.955715692409
-441.728240919539 339.483474916615 284.39498392394
-441.847380797902 340.21315840337 284.356539769822
-441.966520676265 340.942841890125 284.318095615703
-442.085660554627 341.67252537688 284.279651461584
-442.20480043299 342.402208863635 284.241207307466
-442.323940311353 343.13189235039 284.202763153347
-442.443080189716 343.861575837145 284.164318999228
-442.562220068079 344.5912593239 284.12587484511
-442.681359946442 345.320942810655 284.087430690991
-442.800499824805 346.05062629741 284.048986536872
-440.996681502687 339.607835163634 284.488254768403
-441.115821381049 340.337518650389 284.449810614285
-441.234961259412 341.067202137144 284.411366460166
-441.354101137775 341.796885623899 284.372922306047
-441.473241016138 342.526569110654 284.334478151929
-441.592380894501 343.256252597409 284.29603399781
-441.711520772864 343.985936084164 284.257589843692
-441.830660651227 344.715619570919 284.219145689573
-441.94980052959 345.445303057674 284.180701535454
-442.068940407953 346.174986544429 284.142257381336
-440.265122085834 339.732195410653 284.581525612867
-440.384261964197 340.461878897408 284.543081458748
-440.50340184256 341.191562384163 284.504637304629
-440.622541720923 341.921245870918 284.466193150511
-440.741681599286 342.650929357673 284.427748996392
-440.860821477649 343.380612844428 284.389304842273
-440.979961356012 344.110296331183 284.350860688155
-441.099101234375 344.839979817938 284.312416534036
-441.218241112738 345.569663304693 284.273972379917
-441.337380991101 346.299346791448 284.235528225799
-439.533562668982 339.856555657671 284.67479645733
-439.652702547345 340.586239144426 284.636352303211
-439.771842425708 341.315922631181 284.597908149092
-439.890982304071 342.045606117936 284.559463994974
-440.010122182434 342.775289604691 284.521019840855
-440.129262060797 343.504973091446 284.482575686736
-440.24840193916 344.234656578201 284.444131532618
-440.367541817523 344.964340064957 284.405687378499
-440.486681695886 345.694023551712 284.367243224381
-440.605821574249 346.423707038467 284.328799070262
-438.80200325213 339.98091590469 284.768067301793
-438.921143130493 340.710599391445 284.729623147674
-439.040283008856 341.4402828782 284.691178993556
-439.159422887219 342.169966364955 284.652734839437
-439.278562765582 342.89964985171 284.614290685318
-439.397702643945 343.629333338465 284.5758465312
-439.516842522308 344.35901682522 284.537402377081
-439.635982400671 345.088700311975 284.498958222962
-439.755122279034 345.81838379873 284.460514068844
-439.874262157397 346.548067285485 284.422069914725
-438.070443835278 340.105276151709 284.861338146256
-438.189583713641 340.834959638464 284.822893992137
-438.308723592004 341.564643125219 284.784449838019
-438.427863470367 342.294326611974 284.7460056839
-438.54700334873 343.024010098729 284.707561529781
-438.666143227093 343.753693585484 284.669117375663
-438.785283105456 344.483377072239 284.630673221544
-438.904422983819 345.213060558994 284.592229067425
-439.023562862181 345.942744045749 284.553784913307
-439.142702740544 346.672427532504 284.515340759188
-437.338884418426 340.229636398728 284.954608990719
-437.458024296789 340.959319885483 284.916164836601
-437.577164175152 341.689003372238 284.877720682482
-437.696304053515 342.418686858993 284.839276528363
-437.815443931878 343.148370345748 284.800832374245
-437.93458381024 343.878053832503 284.762388220126
-438.053723688603 344.607737319258 284.723944066007
-438.172863566966 345.337420806013 284.685499911889
-438.292003445329 346.067104292768 284.64705575777
-438.411143323692 346.796787779523 284.608611603651
-436.607325001574 340.353996645746 285.047879835182
-436.726464879937 341.083680132501 285.009435681064
-436.845604758299 341.813363619256 284.970991526945
-436.964744636662 342.543047106011 284.932547372826
-437.083884515025 343.272730592766 284.894103218708
-437.203024393388 344.002414079521 284.855659064589
-437.322164271751 344.732097566276 284.81721491047
-437.441304150114 345.461781053031 284.778770756352
-437.560444028477 346.191464539786 284.740326602233
-437.67958390684 346.921148026541 284.701882448114
-435.875765584721 340.478356892765 285.141150679645
-435.994905463084 341.20804037952 285.102706525527
-436.114045341447 341.937723866275 285.064262371408
-436.23318521981 342.66740735303 285.025818217289
-436.352325098173 343.397090839785 284.987374063171
-436.471464976536 344.12677432654 284.948929909052
-436.590604854899 344.856457813295 284.910485754934
-436.709744733262 345.58614130005 284.872041600815
-436.828884611625 346.315824786805 284.833597446696
-436.948024489988 347.04550827356 284.795153292578
-435.144206167869 340.602717139784 285.234421524109
-435.263346046232 341.332400626539 285.19597736999
-435.382485924595 342.062084113294 285.157533215871
-435.501625802958 342.791767600049 285.119089061753
-435.620765681321 343.521451086804 285.080644907634
-435.739905559684 344.251134573559 285.042200753515
-435.859045438047 344.980818060314 285.003756599397
-435.97818531641 345.710501547069 284.965312445278
-436.097325194773 346.440185033824 284.926868291159
-436.216465073136 347.169868520579 284.888424137041
-434.412646751017 340.727077386803 285.327692368572
-434.53178662938 341.456760873558 285.289248214453
-434.650926507743 342.186444360313 285.250804060334
-434.770066386106 342.916127847068 285.212359906216
-434.889206264469 343.645811333823 285.173915752097
-435.008346142832 344.375494820578 285.135471597978
-435.127486021195 345.105178307333 285.09702744386
-435.246625899558 345.834861794088 285.058583289741
-435.365765777921 346.564545280843 285.020139135623
-435.484905656284 347.294228767598 284.981694981504
-433.681087334165 340.851437633821 285.420963213035
-433.800227212528 341.581121120576 285.382519058916
-433.919367090891 342.310804607331 285.344074904798
-434.038506969254 343.040488094086 285.305630750679
-434.157646847617 343.770171580841 285.26718659656
-434.27678672598 344.499855067596 285.228742442442
-434.395926604343 345.229538554351 285.190298288323
-434.515066482706 345.959222041106 285.151854134204
-434.634206361069 346.688905527861 285.113409980086
-434.753346239431 347.418589014616 285.074965825967
-432.949527917313 340.97579788084 285.514234057498
-433.068667795676 341.705481367595 285.475789903379
-433.187807674039 342.43516485435 285.437345749261
-433.306947552402 343.164848341105 285.398901595142
-433.426087430765 343.89453182786 285.360457441023
-433.545227309128 344.624215314615 285.322013286905
-433.664367187491 345.35389880137 285.283569132786
-433.783507065853 346.083582288125 285.245124978668
-433.902646944216 346.81326577488 285.206680824549
-434.021786822579 347.542949261635 285.16823667043
-432.217968500461 341.100158127859 285.607504901961
-432.337108378824 341.829841614614 285.569060747843
-432.456248257187 342.559525101369 285.530616593724
-432.575388135549 343.289208588124 285.492172439605
-432.694528013912 344.018892074879 285.453728285487
-432.813667892275 344.748575561634 285.415284131368
-432.932807770638 345.478259048389 285.376839977249
-433.051947649001 346.207942535144 285.338395823131
-433.171087527364 346.937626021899 285.299951669012
-433.290227405727 347.667309508654 285.261507514893
-431.486409083609 341.224518374877 285.700775746424
-431.605548961971 341.954201861632 285.662331592306
-431.724688840334 342.683885348387 285.623887438187
-431.843828718697 343.413568835142 285.585443284068
-431.96296859706 344.143252321898 285.54699912995
-432.082108475423 344.872935808653 285.508554975831
-432.201248353786 345.602619295408 285.470110821712
-432.320388232149 346.332302782163 285.431666667594
-432.439528110512 347.061986268918 285.393222513475
-432.558667988875 347.791669755673 285.354778359357
-430.754849666757 341.348878621896 285.794046590888
-430.873989545119 342.078562108651 285.755602436769
-430.993129423482 342.808245595406 285.71715828265
-431.112269301845 343.537929082161 285.678714128532
-431.231409180208 344.267612568916 285.640269974413
-431.350549058571 344.997296055671 285.601825820294
-431.469688936934 345.726979542426 285.563381666176
-431.588828815297 346.456663029181 285.524937512057
-431.70796869366 347.186346515936 285.486493357938
-431.827108572023 347.916030002691 285.44804920382
-430.023290249904 341.473238868915 285.887317435351
-430.142430128267 342.20292235567 285.848873281232
-430.26157000663 342.932605842425 285.810429127113
-430.380709884993 343.66228932918 285.771984972995
-430.499849763356 344.391972815935 285.733540818876
-430.618989641719 345.12165630269 285.695096664757
-430.738129520082 345.851339789445 285.656652510639
-430.857269398445 346.5810232762 285.61820835652
-430.976409276808 347.310706762955 285.579764202401
-431.095549155171 348.04039024971 285.541320048283
-429.291730833052 341.597599115934 285.980588279814
-429.410870711415 342.327282602689 285.942144125695
-429.530010589778 343.056966089444 285.903699971577
-429.649150468141 343.786649576199 285.865255817458
-429.768290346504 344.516333062954 285.826811663339
-429.887430224867 345.246016549709 285.788367509221
-430.00657010323 345.975700036464 285.749923355102
-430.125709981593 346.705383523219 285.711479200983
-430.244849859956 347.435067009974 285.673035046865
-430.363989738319 348.164750496729 285.634590892746
-428.5601714162 341.721959362952 286.073859124277
-428.679311294563 342.451642849707 286.035414970158
-428.798451172926 343.181326336462 285.99697081604
-428.917591051289 343.911009823217 285.958526661921
-429.036730929652 344.640693309972 285.920082507802
-429.155870808015 345.370376796727 285.881638353684
-429.275010686378 346.100060283483 285.843194199565
-429.394150564741 346.829743770238 285.804750045446
-429.513290443103 347.559427256993 285.766305891328
-429.632430321466 348.289110743748 285.727861737209
-427.828611999348 341.846319609971 286.16712996874
-427.947751877711 342.576003096726 286.128685814621
-428.066891756074 343.305686583481 286.090241660503
-428.186031634437 344.035370070236 286.051797506384
-428.3051715128 344.765053556991 286.013353352266
-428.424311391163 345.494737043746 285.974909198147
-428.543451269525 346.224420530501 285.936465044028
-428.662591147888 346.954104017256 285.89802088991
-428.781731026251 347.683787504011 285.859576735791
-428.900870904614 348.413470990766 285.821132581672
-427.097052582496 341.97067985699 286.260400813203
-427.216192460859 342.700363343745 286.221956659085
-427.335332339222 343.4300468305 286.183512504966
-427.454472217584 344.159730317255 286.145068350847
-427.573612095947 344.88941380401 286.106624196729
-427.69275197431 345.619097290765 286.06818004261
-427.811891852673 346.34878077752 286.029735888491
-427.931031731036 347.078464264275 285.991291734373
-428.050171609399 347.80814775103 285.952847580254
-428.169311487762 348.537831237785 285.914403426135
-426.365493165643 342.095040104009 286.353671657666
-426.484633044006 342.824723590764 286.315227503548
-426.603772922369 343.554407077519 286.276783349429
-426.722912800732 344.284090564274 286.23833919531
-426.842052679095 345.013774051029 286.199895041192
-426.961192557458 345.743457537784 286.161450887073
-427.080332435821 346.473141024539 286.123006732955
-427.199472314184 347.202824511294 286.084562578836
-427.318612192547 347.932507998049 286.046118424717
-427.43775207091 348.662191484804 286.007674270599
-425.633933748791 342.219400351027 286.44694250213
-425.753073627154 342.949083837782 286.408498348011
-425.872213505517 343.678767324537 286.370054193892
-425.99135338388 344.408450811292 286.331610039774
-426.110493262243 345.138134298047 286.293165885655
-426.229633140606 345.867817784802 286.254721731536
-426.348773018969 346.597501271557 286.216277577418
-426.467912897332 347.327184758312 286.177833423299
-426.587052775695 348.056868245068 286.13938926918
-426.706192654058 348.786551731823 286.100945115062
-424.902374331939 342.343760598046 286.540213346593
-425.021514210302 343.073444084801 286.501769192474
-425.140654088665 343.803127571556 286.463325038355
-425.259793967028 344.532811058311 286.424880884237
-425.378933845391 345.262494545066 286.386436730118
-425.498073723754 345.992178031821 286.347992575999
-425.617213602117 346.721861518576 286.309548421881
-425.73635348048 347.451545005331 286.271104267762
-425.855493358843 348.181228492086 286.232660113644
-425.974633237206 348.910911978841 286.194215959525
-424.170814915087 342.468120845065 286.633484191056
-424.28995479345 343.19780433182 286.595040036937
-424.409094671813 343.927487818575 286.556595882819
-424.528234550176 344.65717130533 286.5181517287
-424.647374428539 345.386854792085 286.479707574581
-424.766514306902 346.11653827884 286.441263420463
-424.885654185265 346.846221765595 286.402819266344
-425.004794063628 347.57590525235 286.364375112225
-425.123933941991 348.305588739105 286.325930958107
-425.243073820354 349.03527222586 286.287486803988
-423.439255498235 342.592481092084 286.726755035519
-423.558395376598 343.322164578839 286.6883108814
-423.677535254961 344.051848065594 286.649866727282
-423.796675133324 344.781531552349 286.611422573163
-423.915815011687 345.511215039104 286.572978419044
-424.03495489005 346.240898525859 286.534534264926
-424.154094768413 346.970582012614 286.496090110807
-424.273234646776 347.700265499369 286.457645956688
-424.392374525138 348.429948986124 286.41920180257
-424.511514403501 349.159632472879 286.380757648451
-422.707696081383 342.716841339102 286.820025879982
-422.826835959746 343.446524825857 286.781581725863
-422.945975838109 344.176208312612 286.743137571745
-423.065115716472 344.905891799367 286.704693417626
-423.184255594834 345.635575286122 286.666249263508
-423.303395473197 346.365258772877 286.627805109389
-423.42253535156 347.094942259632 286.58936095527
-423.541675229923 347.824625746387 286.550916801152
-423.660815108286 348.554309233142 286.512472647033
-423.779954986649 349.283992719897 286.474028492914
-421.976136664531 342.841201586121 286.913296724445
-422.095276542894 343.570885072876 286.874852570327
-422.214416421256 344.300568559631 286.836408416208
-422.333556299619 345.030252046386 286.797964262089
-422.452696177982 345.759935533141 286.759520107971
-422.571836056345 346.489619019896 286.721075953852
-422.690975934708 347.219302506651 286.682631799733
-422.810115813071 347.948985993406 286.644187645615
-422.929255691434 348.678669480161 286.605743491496
-423.048395569797 349.408352966916 286.567299337377
-421.244577247679 342.96556183314 287.006567568909
-421.363717126041 343.695245319895 286.96812341479
-421.482857004404 344.42492880665 286.929679260671
-421.601996882767 345.154612293405 286.891235106552
-421.72113676113 345.88429578016 286.852790952434
-421.840276639493 346.613979266915 286.814346798315
-421.959416517856 347.34366275367 286.775902644197
-422.078556396219 348.073346240425 286.737458490078
-422.197696274582 348.80302972718 286.699014335959
-422.316836152945 349.532713213935 286.660570181841
-420.513017830826 343.089922080159 287.099838413372
-420.632157709189 343.819605566913 287.061394259253
-420.751297587552 344.549289053668 287.022950105134
-420.870437465915 345.278972540424 286.984505951016
-420.989577344278 346.008656027179 286.946061796897
-421.108717222641 346.738339513934 286.907617642778
-421.227857101004 347.468023000689 286.86917348866
-421.346996979367 348.197706487444 286.830729334541
-421.46613685773 348.927389974199 286.792285180422
-421.585276736093 349.657073460954 286.753841026304
-419.781458413974 343.214282327177 287.193109257835
-419.900598292337 343.943965813932 287.154665103716
-420.0197381707 344.673649300687 287.116220949597
-420.138878049063 345.403332787442 287.077776795479
-420.258017927426 346.133016274197 287.03933264136
-420.377157805789 346.862699760952 287.000888487241
-420.496297684152 347.592383247707 286.962444333123
-420.615437562515 348.322066734462 286.924000179004
-420.734577440878 349.051750221217 286.885556024886
-420.853717319241 349.781433707972 286.847111870767
-419.049898997122 343.338642574196 287.286380102298
-419.169038875485 344.068326060951 287.247935948179
-419.288178753848 344.798009547706 287.209491794061
-419.407318632211 345.527693034461 287.171047639942
-419.526458510574 346.257376521216 287.132603485823
-419.645598388937 346.987060007971 287.094159331705
-419.7647382673 347.716743494726 287.055715177586
-419.883878145663 348.446426981481 287.017271023467
-420.003018024026 349.176110468236 286.978826869349
-420.122157902388 349.905793954991 286.94038271523
-418.31833958027 343.463002821215 287.379650946761
-418.437479458633 344.19268630797 287.341206792642
-418.556619336996 344.922369794725 287.302762638524
-418.675759215359 345.65205328148 287.264318484405
-418.794899093722 346.381736768235 287.225874330286
-418.914038972084 347.11142025499 287.187430176168
-419.033178850447 347.841103741745 287.148986022049
-419.15231872881 348.5707872285 287.110541867931
-419.271458607173 349.300470715255 287.072097713812
-419.390598485536 350.03015420201 287.033653559693
-417.586780163418 343.587363068233 287.472921791224
-417.705920041781 344.317046554988 287.434477637106
-417.825059920144 345.046730041743 287.396033482987
-417.944199798506 345.776413528498 287.357589328868
-418.063339676869 346.506097015253 287.31914517475
-418.182479555232 347.235780502008 287.280701020631
-418.301619433595 347.965463988763 287.242256866512
-418.420759311958 348.695147475519 287.203812712394
-418.539899190321 349.424830962274 287.165368558275
-418.659039068684 350.154514449029 287.126924404156
-416.855220746566 343.711723315252 287.566192635687
-416.974360624928 344.441406802007 287.527748481569
-417.093500503291 345.171090288762 287.48930432745
-417.212640381654 345.900773775517 287.450860173331
-417.331780260017 346.630457262272 287.412416019213
-417.45092013838 347.360140749027 287.373971865094
-417.570060016743 348.089824235782 287.335527710975
-417.689199895106 348.819507722537 287.297083556857
-417.808339773469 349.549191209292 287.258639402738
-417.927479651832 350.278874696047 287.22019524862
-416.123661329713 343.836083562271 287.659463480151
-416.242801208076 344.565767049026 287.621019326032
-416.361941086439 345.295450535781 287.582575171913
-416.481080964802 346.025134022536 287.544131017795
-416.600220843165 346.754817509291 287.505686863676
-416.719360721528 347.484500996046 287.467242709557
-416.838500599891 348.214184482801 287.428798555439
-416.957640478254 348.943867969556 287.39035440132
-417.076780356617 349.673551456311 287.351910247201
-417.19592023498 350.403234943066 287.313466093083
-415.392101912861 343.96044380929 287.752734324614
-415.511241791224 344.690127296045 287.714290170495
-415.630381669587 345.4198107828 287.675846016376
-415.74952154795 346.149494269555 287.637401862258
-415.868661426313 346.87917775631 287.598957708139
-415.987801304676 347.608861243065 287.56051355402
-416.106941183039 348.33854472982 287.522069399902
-416.226081061402 349.068228216575 287.483625245783
-416.345220939765 349.79791170333 287.445181091664
-416.464360818128 350.527595190085 287.406736937546
-414.660542496009 344.084804056308 287.846005169077
-414.779682374372 344.814487543063 287.807561014958
-414.898822252735 345.544171029818 287.76911686084
-415.017962131098 346.273854516573 287.730672706721
-415.137102009461 347.003538003328 287.692228552602
-415.256241887824 347.733221490083 287.653784398484
-415.375381766187 348.462904976839 287.615340244365
-415.49452164455 349.192588463593 287.576896090246
-415.613661522913 349.922271950349 287.538451936128
-415.732801401276 350.651955437104 287.500007782009
-413.928983079157 344.209164303327 287.93927601354
-414.04812295752 344.938847790082 287.900831859421
-414.167262835883 345.668531276837 287.862387705303
-414.286402714246 346.398214763592 287.823943551184
-414.405542592609 347.127898250347 287.785499397065
-414.524682470972 347.857581737102 287.747055242947
-414.643822349335 348.587265223857 287.708611088828
-414.762962227697 349.316948710612 287.670166934709
-414.88210210606 350.046632197367 287.631722780591
-415.001241984423 350.776315684122 287.593278626472
-413.197423662305 344.333524550346 288.032546858003
-413.316563540668 345.063208037101 287.994102703884
-413.435703419031 345.792891523856 287.955658549766
-413.554843297394 346.522575010611 287.917214395647
-413.673983175757 347.252258497366 287.878770241529
-413.793123054119 347.981941984121 287.84032608741
-413.912262932482 348.711625470876 287.801881933291
-414.031402810845 349.441308957631 287.763437779173
-414.150542689208 350.170992444386 287.724993625054
-414.269682567571 350.900675931141 287.686549470935
-412.465864245453 344.457884797365 288.125817702466
-412.585004123816 345.18756828412 288.087373548348
-412.704144002179 345.917251770875 288.048929394229
-412.823283880541 346.64693525763 288.01048524011
-412.942423758904 347.376618744385 287.972041085992
-413.061563637267 348.10630223114 287.933596931873
-413.18070351563 348.835985717895 287.895152777754
-413.299843393993 349.56566920465 287.856708623636
-413.418983272356 350.295352691405 287.818264469517
-413.538123150719 351.02503617816 287.779820315398
-411.7343048286 344.582245044383 288.219088546929
-411.853444706963 345.311928531138 288.180644392811
-411.972584585326 346.041612017893 288.142200238692
-412.091724463689 346.771295504648 288.103756084573
-412.210864342052 347.500978991403 288.065311930455
-412.330004220415 348.230662478158 288.026867776336
-412.449144098778 348.960345964913 287.988423622218
-412.568283977141 349.690029451668 287.949979468099
-412.687423855504 350.419712938423 287.91153531398
-412.806563733867 351.149396425178 287.873091159862
-411.002745411748 344.706605291402 288.312359391393
-411.121885290111 345.436288778157 288.273915237274
-411.241025168474 346.165972264912 288.235471083155
-411.360165046837 346.895655751667 288.197026929037
-411.4793049252 347.625339238422 288.158582774918
-411.598444803563 348.355022725177 288.120138620799
-411.717584681926 349.084706211932 288.081694466681
-411.836724560289 349.814389698687 288.043250312562
-411.955864438652 350.544073185442 288.004806158443
-412.075004317015 351.273756672197 287.966362004325
-410.271185994896 344.830965538421 288.405630235856
-410.390325873259 345.560649025176 288.367186081737
-410.509465751622 346.290332511931 288.328741927618
-410.628605629985 347.020015998686 288.2902977735
-410.747745508348 347.749699485441 288.251853619381
-410.866885386711 348.479382972196 288.213409465262
-410.986025265074 349.209066458951 288.174965311144
-411.105165143437 349.938749945706 288.136521157025
-411.2243050218 350.668433432461 288.098077002907
-411.343444900163 351.398116919216 288.059632848788
-409.539626578044 344.95532578544 288.498901080319
-409.658766456407 345.685009272195 288.4604569262
-409.77790633477 346.41469275895 288.422012772082
-409.897046213133 347.144376245705 288.383568617963
-410.016186091496 347.87405973246 288.345124463844
-410.135325969859 348.603743219215 288.306680309726
-410.254465848222 349.33342670597 288.268236155607
-410.373605726585 350.063110192725 288.229792001488
-410.492745604948 350.79279367948 288.19134784737
-410.611885483311 351.522477166235 288.152903693251
-408.808067161192 345.079686032458 288.592171924782
-408.927207039555 345.809369519213 288.553727770663
-409.046346917918 346.539053005968 288.515283616545
-409.165486796281 347.268736492723 288.476839462426
-409.284626674644 347.998419979478 288.438395308307
-409.403766553007 348.728103466233 288.399951154189
-409.52290643137 349.457786952988 288.36150700007
-409.642046309733 350.187470439743 288.323062845952
-409.761186188095 350.917153926498 288.284618691833
-409.880326066458 351.646837413253 288.246174537714
-408.07650774434 345.204046279477 288.685442769245
-408.195647622703 345.933729766232 288.646998615127
-408.314787501066 346.663413252987 288.608554461008
-408.433927379428 347.393096739742 288.570110306889
-408.553067257791 348.122780226497 288.531666152771
-408.672207136154 348.852463713252 288.493221998652
-408.791347014517 349.582147200007 288.454777844533
-408.91048689288 350.311830686762 288.416333690415
-409.029626771243 351.041514173517 288.377889536296
-409.148766649606 351.771197660272 288.339445382177
-407.344948327488 345.328406526496 288.778713613708
-407.46408820585 346.058090013251 288.74026945959
-407.583228084213 346.787773500006 288.701825305471
-407.702367962576 347.517456986761 288.663381151352
-407.821507840939 348.247140473516 288.624936997234
-407.940647719302 348.976823960271 288.586492843115
-408.059787597665 349.706507447026 288.548048688996
-408.178927476028 350.436190933781 288.509604534878
-408.298067354391 351.165874420536 288.471160380759
-408.417207232754 351.895557907291 288.43271622664
-406.613388910635 345.452766773514 288.871984458171
-406.732528788998 346.182450260269 288.833540304053
-406.851668667361 346.912133747024 288.795096149934
-406.970808545724 347.641817233779 288.756651995816
-407.089948424087 348.371500720535 288.718207841697
-407.20908830245 349.10118420729 288.679763687578
-407.328228180813 349.830867694045 288.64131953346
-407.447368059176 350.5605511808 288.602875379341
-407.566507937539 351.290234667555 288.564431225222
-407.685647815902 352.01991815431 288.525987071104
-405.881829493783 345.577127020533 288.965255302635
-406.000969372146 346.306810507288 288.926811148516
-406.120109250509 347.036493994043 288.888366994397
-406.239249128872 347.766177480798 288.849922840279
-406.358389007235 348.495860967553 288.81147868616
-406.477528885598 349.225544454308 288.773034532041
-406.596668763961 349.955227941063 288.734590377923
-406.715808642324 350.684911427818 288.696146223804
-406.834948520687 351.414594914573 288.657702069685
-406.95408839905 352.144278401328 288.619257915567
-405.150270076931 345.701487267552 289.058526147098
-405.269409955294 346.431170754307 289.020081992979
-405.388549833657 347.160854241062 288.98163783886
-405.50768971202 347.890537727817 288.943193684742
-405.626829590383 348.620221214572 288.904749530623
-405.745969468746 349.349904701327 288.866305376504
-405.865109347109 350.079588188082 288.827861222386
-405.984249225472 350.809271674837 288.789417068267
-406.103389103835 351.538955161592 288.750972914149
-406.222528982198 352.268638648347 288.71252876003
-404.418710660079 345.825847514571 289.151796991561
-404.537850538442 346.555531001326 289.113352837442
-404.656990416805 347.285214488081 289.074908683324
-404.776130295168 348.014897974836 289.036464529205
-404.895270173531 348.744581461591 288.998020375086
-405.014410051894 349.474264948346 288.959576220968
-405.133549930257 350.203948435101 288.921132066849
-405.25268980862 350.933631921856 288.88268791273
-405.371829686983 351.663315408611 288.844243758612
-405.490969565345 352.392998895366 288.805799604493
-403.687151243227 345.950207761589 289.245067836024
-403.80629112159 346.679891248344 289.206623681905
-403.925430999953 347.409574735099 289.168179527787
-404.044570878316 348.139258221854 289.129735373668
-404.163710756679 348.868941708609 289.091291219549
-404.282850635041 349.598625195364 289.052847065431
-404.401990513404 350.32830868212 289.014402911312
-404.521130391767 351.057992168875 288.975958757194
-404.64027027013 351.78767565563 288.937514603075
-404.759410148493 352.517359142385 288.899070448956
-402.955591826375 346.074568008608 289.338338680487
-403.074731704738 346.804251495363 289.299894526369
-403.193871583101 347.533934982118 289.26145037225
-403.313011461463 348.263618468873 289.223006218131
-403.432151339826 348.993301955628 289.184562064013
-403.551291218189 349.722985442383 289.146117909894
-403.670431096552 350.452668929138 289.107673755775
-403.789570974915 351.182352415893 289.069229601657
-403.908710853278 351.912035902648 289.030785447538
-404.027850731641 352.641719389403 288.992341293419
-402.224032409523 346.198928255627 289.43160952495
-402.343172287885 346.928611742382 289.393165370832
-402.462312166248 347.658295229137 289.354721216713
-402.581452044611 348.387978715892 289.316277062594
-402.700591922974 349.117662202647 289.277832908476
-402.819731801337 349.847345689402 289.239388754357
-402.9388716797 350.577029176157 289.200944600238
-403.058011558063 351.306712662912 289.16250044612
-403.177151436426 352.036396149667 289.124056292001
-403.296291314789 352.766079636422 289.085612137883
-401.49247299267 346.323288502646 289.524880369414
-401.611612871033 347.052971989401 289.486436215295
-401.730752749396 347.782655476156 289.447992061176
-401.849892627759 348.512338962911 289.409547907058
-401.969032506122 349.242022449666 289.371103752939
-402.088172384485 349.971705936421 289.33265959882
-402.207312262848 350.701389423176 289.294215444702
-402.326452141211 351.431072909931 289.255771290583
-402.445592019574 352.160756396686 289.217327136464
-402.564731897937 352.890439883441 289.178882982346
-400.760913575818 346.447648749664 289.618151213877
-400.880053454181 347.177332236419 289.579707059758
-400.999193332544 347.907015723174 289.541262905639
-401.118333210907 348.636699209929 289.502818751521
-401.23747308927 349.366382696684 289.464374597402
-401.356612967633 350.096066183439 289.425930443283
-401.475752845996 350.825749670194 289.387486289165
-401.594892724359 351.555433156949 289.349042135046
-401.714032602722 352.285116643704 289.310597980927
-401.833172481085 353.014800130459 289.272153826809
-400.029354158966 346.572008996683 289.71142205834
-400.148494037329 347.301692483438 289.672977904221
-400.267633915692 348.031375970193 289.634533750102
-400.386773794055 348.761059456948 289.596089595984
-400.505913672418 349.490742943703 289.557645441865
-400.625053550781 350.220426430458 289.519201287747
-400.744193429144 350.950109917213 289.480757133628
-400.863333307507 351.679793403968 289.442312979509
-400.98247318587 352.409476890723 289.403868825391
-401.101613064233 353.139160377478 289.365424671272
-399.297794742114 346.696369243702 289.804692902803
-399.416934620477 347.426052730457 289.766248748684
-399.53607449884 348.155736217212 289.727804594566
-399.655214377203 348.885419703967 289.689360440447
-399.774354255566 349.615103190722 289.650916286328
-399.893494133929 350.344786677477 289.61247213221
-400.012634012292 351.074470164232 289.574027978091
-400.131773890654 351.804153650987 289.535583823972
-400.250913769017 352.533837137742 289.497139669854
-400.37005364738 353.263520624497 289.458695515735
-398.566235325262 346.820729490721 289.897963747266
-398.685375203625 347.550412977476 289.859519593147
-398.804515081988 348.280096464231 289.821075439029
-398.923654960351 349.009779950986 289.78263128491
-399.042794838714 349.739463437741 289.744187130792
-399.161934717077 350.469146924496 289.705742976673
-399.281074595439 351.198830411251 289.667298822554
-399.400214473802 351.928513898006 289.628854668436
-399.519354352165 352.658197384761 289.590410514317
-399.638494230528 353.387880871516 289.551966360198
-397.83467590841 346.945089737739 289.991234591729
-397.953815786773 347.674773224494 289.952790437611
-398.072955665136 348.404456711249 289.914346283492
-398.192095543498 349.134140198004 289.875902129373
-398.311235421861 349.863823684759 289.837457975255
-398.430375300224 350.593507171514 289.799013821136
-398.549515178587 351.323190658269 289.760569667017
-398.66865505695 352.052874145024 289.722125512899
-398.787794935313 352.782557631779 289.68368135878
-398.906934813676 353.512241118534 289.645237204661
-397.103116491557 347.069449984758 290.084505436192
-397.22225636992 347.799133471513 290.046061282074
-397.341396248283 348.528816958268 290.007617127955
-397.460536126646 349.258500445023 289.969172973836
-397.579676005009 349.988183931778 289.930728819718
-397.698815883372 350.717867418533 289.892284665599
-397.817955761735 351.447550905288 289.85384051148
-397.937095640098 352.177234392043 289.815396357362
-398.056235518461 352.906917878798 289.776952203243
-398.175375396824 353.636601365553 289.738508049125
-396.371557074705 347.193810231777 290.177776280656
-396.490696953068 347.923493718532 290.139332126537
-396.609836831431 348.653177205287 290.100887972418
-396.728976709794 349.382860692042 290.0624438183
-396.848116588157 350.112544178797 290.023999664181
-396.96725646652 350.842227665552 289.985555510062
-397.086396344883 351.571911152307 289.947111355944
-397.205536223246 352.301594639062 289.908667201825
-397.324676101609 353.031278125817 289.870223047706
-397.443815979972 353.760961612572 289.831778893588
-395.639997657853 347.318170478796 290.271047125119
-395.759137536216 348.04785396555 290.232602971
-395.878277414579 348.777537452306 290.194158816881
-395.997417292942 349.507220939061 290.155714662763
-396.116557171305 350.236904425816 290.117270508644
-396.235697049668 350.966587912571 290.078826354525
-396.354836928031 351.696271399326 290.040382200407
-396.473976806394 352.425954886081 290.001938046288
-396.593116684757 353.155638372836 289.963493892169
-396.71225656312 353.885321859591 289.925049738051
-394.908438241001 347.442530725814 290.364317969582
-395.027578119364 348.172214212569 290.325873815463
-395.146717997727 348.901897699324 290.287429661345
-395.26585787609 349.631581186079 290.248985507226
-395.384997754453 350.361264672834 290.210541353107
-395.504137632816 351.090948159589 290.172097198989
-395.623277511179 351.820631646344 290.13365304487
-395.742417389542 352.550315133099 290.095208890751
-395.861557267905 353.279998619854 290.056764736633
-395.980697146268 354.009682106609 290.018320582514
-394.176878824149 347.566890972833 290.457588814045
-394.296018702512 348.296574459588 290.419144659926
-394.415158580875 349.026257946343 290.380700505808
-394.534298459238 349.755941433098 290.342256351689
-394.653438337601 350.485624919853 290.30381219757
-394.772578215964 351.215308406608 290.265368043452
-394.891718094326 351.944991893363 290.226923889333
-395.010857972689 352.674675380118 290.188479735214
