# .PCD v.7 - Point Cloud Data file format
VERSION .7
FIELDS x y z
SIZE 4 4 4
TYPE F F F
COUNT 1 1 1
WIDTH 962
HEIGHT 1
VIEWPOINT 0 0 0 1 0 0 0
POINTS 962
DATA ascii
-47.0472695 -54.8163103283776 -52.3782796277874
-46.6141984 -54.8359953783776 -52.3441841210378
-46.1417572 -54.7874894148786 -52.2707185142883
-45.7874263 -54.8897759351271 -52.3297736642883
-45.3149851 -54.8412699716281 -52.2563080575388
-44.9212841 -54.8950505283776 -52.2418976007892
-44.488213 -54.8465445648786 -52.1684319940397
-44.0157718 -54.8177236513795 -52.0608708805406
-43.5827007 -54.7692176878804 -51.9874052737911
-43.0708894 -54.6722057608823 -51.840474060292
-42.6771884 -54.6722057608823 -51.840474060292
-42.2834874 -54.7259863176318 -51.8260636035425
-42.0078967 -54.8623683446299 -51.9048038035425
-41.732306 -55.0472563351272 -52.057009610292
-41.4960854 -55.2662398323739 -52.2289004670416
-41.2598648 -55.5193188363702 -52.4204763737911
-41.1811246 -55.9376007808636 -52.7983535940397
-41.0630143 -56.3755677753571 -53.1421353075388
-41.4567153 -61.7018106700246 -57.853827400522
-41.1811246 -61.8866986605218 -58.0060332072715
-53.7401865 -53.8616361393907 -51.8270982277874
-53.3858556 -53.9639226596393 -51.8861533777874
-52.9134144 -53.9836077096393 -51.8520578710378
-52.5590835 -54.1199897366374 -51.9307980710378
-52.1653825 -54.1737702933869 -51.9163876142883
-51.8504217 -54.3245627771346 -52.0489083710378
-51.4173506 -54.3783433338842 -52.0344979142883
-50.9842795 -54.4321238906337 -52.0200874575388
-50.6299486 -54.5344104108823 -52.0791426075388
-50.2362476 -54.6026014243813 -52.1185127075388
-49.9212868 -54.7389834513795 -52.1972529075388
-49.4882157 -54.7586685013795 -52.1631574007892
-49.1732549 -54.9291460351271 -52.2615826507892
-48.7795539 -54.9829265918767 -52.2471721940397
-48.425223 -55.1193086188748 -52.3259123940397
-48.0708921 -55.1874996323739 -52.3652824940397
-47.6771911 -55.255690645873 -52.4046525940397
-47.2834901 -55.343566709372 -52.4099271872902
-46.9291592 -55.4458532296206 -52.4689823372902
-46.4960881 -55.4314427728711 -52.4152017805406
-46.1023871 -55.4852233296206 -52.4007913237911
-45.669316 -55.4708128728711 -52.3470107670416
-45.275615 -55.5049083796206 -52.3666958170416
-44.8425439 -55.4904979228711 -52.312915260292
-44.4094728 -55.5101829728711 -52.2788197535425
-43.9764017 -55.4957725161216 -52.225039196793
-43.4645904 -55.3987605891234 -52.0781079832939
-42.9921492 -55.2820636121253 -51.9652722765444
-42.5984482 -55.3017486621253 -51.9311767697948
-42.1653771 -55.2873382053757 -51.8773962130453
-41.8110462 -55.3555292188748 -51.9167663130453
-41.5354555 -55.560102259372 -52.0348766130453
-41.338605 -55.8131812633683 -52.2264525197948
-41.0630143 -56.032164760615 -52.3983433765444
-40.9842741 -56.4504467051085 -52.776220596793
-41.0236442 -57.0536166400992 -53.3063036237911
-41.5748256 -61.4606941755311 -57.1690906195276
-41.2992349 -61.7137731795274 -57.3606665262771
-41.1023844 -62.0153581470227 -57.6257080397762
-54.4094782 -54.2525104933869 -51.7800055872902
-54.0157772 -54.320701506886 -51.8193756872902
-53.7008164 -54.4911790406337 -51.9178009372902
-53.1890051 -54.4767685838842 -51.8640203805406
-52.8740443 -54.6472461176318 -51.9624456305406
-52.4016031 -54.6328356608823 -51.9086650737911
-52.0079021 -54.7351221811309 -51.9677202237911
-51.6142011 -54.82299824463 -51.9729948170416
-51.2992403 -54.9593802716281 -52.0517350170416
-50.9449094 -55.0957622986262 -52.1304752170415
-50.5905785 -55.1980488188748 -52.1895303670416
-50.2362476 -55.334430845873 -52.2682705670416
-49.8425466 -55.3882114026225 -52.253860110292
-49.4488456 -55.4564024161216 -52.293230210292
-49.0551446 -55.5245934296206 -52.332600310292
-48.7008137 -55.6465649998692 -52.3575599535425
-48.3071127 -55.6806605066188 -52.3772450035425
-47.9921519 -55.8511380403664 -52.4756702535425
-47.5984509 -55.904918597116 -52.461259796793
-47.2047499 -55.973109610615 -52.500629896793
-46.850419 -56.0753961308636 -52.559685046793
-46.4173479 -56.0950811808636 -52.5255895400434
-46.0236469 -56.1147662308636 -52.4914940332939
-45.5905758 -56.1344512808636 -52.4573985265444
-45.1575047 -56.1200408241141 -52.4036179697948
-44.7638037 -56.1541363308636 -52.4233030197948
-44.2913625 -56.1056303673646 -52.3498374130453
-43.8582914 -56.091219910615 -52.2960568562958
-43.4252203 -56.062398997116 -52.1884957427967
-42.913409 -55.9116065133683 -52.0559749860471
-42.3622276 -55.7660886228711 -51.8355781657986
-41.9685266 -55.7660886228711 -51.8355781657986
-41.6141957 -55.8683751431197 -51.8946333157986
-41.338605 -56.0388526768674 -51.9930585657985
-41.0630143 -56.2237406673646 -52.1452643725481
-40.8661638 -56.5109151781104 -52.3565253292976
-40.7874236 -56.9291971226038 -52.7344025495462
-40.9842741 -57.7854460615908 -53.4560614832939
-41.6929359 -60.596722696047 -55.9883663182846
-41.6535658 -61.1854821742881 -56.4646687885332
-41.4567153 -61.521162648533 -56.7493953520322
-41.2992349 -61.8909386295274 -57.0538069655313
-41.1417545 -62.3289056240208 -57.3975886790304
-55.0000297 -54.5751938338842 -51.693542846793
-54.724439 -54.7797668743814 -51.811653146793
-54.2913679 -54.8335474311309 -51.7972426900434
-53.8976669 -54.9358339513795 -51.8562978400434
-53.543336 -55.0381204716281 -51.9153529900434
-53.149635 -55.1404069918767 -51.9744081400434
-52.6771938 -55.1600920418767 -51.9403126332939
-52.3228629 -55.2820636121253 -51.9652722765444
-51.968532 -55.3843501323739 -52.0243274265444
-51.574831 -55.4866366526225 -52.0833825765444
-51.2205001 -55.5889231728711 -52.1424377265444
-50.8661692 -55.7253051998692 -52.2211779265443
-50.5512084 -55.8957827336169 -52.3196031765443
-50.1575074 -55.9495632903664 -52.3051927197948
-49.8031765 -56.0859453173646 -52.3839329197948
-49.3307353 -56.071534860615 -52.3301523630453
-48.9764044 -56.1738213808636 -52.3892075130453
-48.5827034 -56.2079168876132 -52.4088925630453
-48.2283725 -56.3442989146113 -52.4876327630453
-47.8346715 -56.3980794713608 -52.4732223062958
-47.5197107 -56.5685570051085 -52.5716475562958
-47.1653798 -56.6367480186076 -52.6110176562958
-46.7716788 -56.7049390321066 -52.6503877562957
-46.3779778 -56.7587195888562 -52.6359772995462
-45.9055366 -56.7443091321066 -52.5821967427967
-45.5118356 -56.7784046388562 -52.6018817927967
-45.1181346 -56.7980896888562 -52.5677862860472
-44.7244336 -56.8518702456057 -52.5533758292976
-44.2913625 -56.8374597888562 -52.4995952725481
-43.8582914 -56.8230493321066 -52.4458147157985
-43.30711 -56.6578463916094 -52.2595134022995
-42.8346688 -56.6093404281104 -52.18604779555
-42.2834874 -56.4100419808636 -51.9800614320509
-41.7716761 -56.2448390403664 -51.7937601185518
-41.4173452 -56.347125560615 -51.8528152685518
-41.1417545 -56.5176030943627 -51.9512405185518
-40.9055339 -56.7365865916094 -52.1231313753013
-40.6693133 -56.9896655956057 -52.3147072820509
-40.7874236 -57.7095325075945 -52.9576260157986
-41.2992349 -59.0666648613235 -54.1503128265444
-41.5354555 -60.0055152705591 -54.9651224170416
-41.6535658 -60.7935731960469 -55.6474112507892
-41.5748256 -61.24595064729 -56.0449735210378
-41.3779751 -61.5816311215348 -56.3297000845369
-41.2204947 -61.9855026092788 -56.653796748036
-41.1811246 -62.5886725442694 -57.1838797750341
-41.732306 -64.1306928884957 -58.5287723925294
-55.3543606 -55.1365457216281 -51.7448754562958
-54.9606596 -55.2388322418767 -51.8039306062958
-54.6063287 -55.3608038121253 -51.8288902495462
-54.2519978 -55.4971858391234 -51.9076304495462
-53.8189267 -55.5653768526225 -51.9470005495462
-53.5039659 -55.7017588796206 -52.0257407495462
-53.0708948 -55.7555394363702 -52.0113302927967
-52.6378237 -55.8093199931197 -51.9969198360471
-52.2047526 -55.8775110066188 -52.0362899360471
-51.8897918 -56.0138930336169 -52.1150301360471
-51.4960908 -56.1161795538655 -52.1740852860472
-51.18113 -56.2866570876132 -52.2725105360472
-50.8661692 -56.4230391146113 -52.3512507360471
-50.4724682 -56.5109151781104 -52.3565253292976
-50.0787672 -56.613201698359 -52.4155804792976
-49.6456961 -56.632886748359 -52.3814849725481
-49.2913652 -56.7351732686076 -52.4405401225481
-48.8976642 -56.8033642821066 -52.4799102225481
-48.5433333 -56.9056508023552 -52.5389653725481
-48.1102622 -56.9594313591048 -52.5245549157986
-47.7953014 -57.0958133861029 -52.6032951157986
-47.4409705 -57.1980999063515 -52.6623502657986
-47.0472695 -57.2662909198506 -52.7017203657986
-46.6929386 -57.3541669833496 -52.706994959049
-46.2598675 -57.3541669833496 -52.706994959049
-45.8661665 -57.4420430468487 -52.7122695522995
-45.3937253 -57.3935370833496 -52.63880394555
-45.0000243 -57.4473176400992 -52.6243934888004
-44.6063233 -57.4473176400992 -52.6243934888004
-44.1732522 -57.4670026900992 -52.5902979820509
-43.7401811 -57.4525922333496 -52.5365174253013
-43.1889997 -57.2532937861029 -52.3305310618023
-42.6771884 -57.1221863523552 -52.1639147983032
-42.0472668 -56.8743819416094 -51.8844628280546
-41.6141957 -56.8258759781104 -51.8109972213051
-41.1811246 -56.7773700146113 -51.7375316145555
-40.944904 -56.996353511858 -51.9094224713051
-40.6693133 -57.1812415023552 -52.0616282780546
-40.5118329 -57.5510174833496 -52.3660398915537
-40.9055339 -58.7088513898319 -53.3527403388004
-41.4173452 -60.0318882368114 -54.5257420995462
-41.4960854 -60.7517551488002 -55.1686608332939
-41.4173452 -61.2579131567928 -55.551812646793
-41.2992349 -61.7443861147853 -55.9690599670416
-41.1811246 -62.1626680592788 -56.3469371872902
-41.7716761 -63.7387839102545 -57.7115148547855
-56.0236523 -55.5130096188748 -51.644002259049
-55.6693214 -55.649391645873 -51.722742459049
-55.2362503 -55.717582659372 -51.762112559049
-54.8819194 -55.8539646863702 -51.840852759049
-54.4882184 -55.9759362566188 -51.8658124022995
-54.1338875 -56.1123182836169 -51.9445526022995
-53.7008164 -56.1464137903664 -51.9642376522995
-53.3464855 -56.2827958173646 -52.0429778522995
-52.9134144 -56.3365763741141 -52.02856739555
-52.5590835 -56.4388628943627 -52.0876225455499
-52.1653825 -56.5608344646113 -52.1125821888004
-51.8110516 -56.6972164916094 -52.1913223888004
-51.4567207 -56.799503011858 -52.2503775388004
-51.1023898 -56.9358850388562 -52.3291177388004
-50.7480589 -57.0381715591048 -52.3881728888004
-50.393728 -57.1745535861029 -52.4669130888004
-49.9606569 -57.2283341428524 -52.4525026320509
-49.606326 -57.3306206631011 -52.5115577820509
-49.212625 -57.3647161698506 -52.5312428320509
-48.818924 -57.4670026900992 -52.5902979820509
-48.425223 -57.5207832468487 -52.5758875253013
-48.0708921 -57.6230697670973 -52.6349426753013
-47.7165612 -57.7253562873459 -52.6939978253014
-47.3228602 -57.8276428075945 -52.7530529753014
-46.9291592 -57.8814233643441 -52.7386425185518
-46.5748283 -57.9496143778431 -52.7780126185518
-46.1811273 -58.0374904413422 -52.7832872118023
-45.7874263 -58.0715859480917 -52.8029722618023
-45.3149851 -58.0571754913422 -52.7491917050527
-44.9212841 -58.0768605413422 -52.7150961983032
-44.488213 -58.0965455913422 -52.6810006915537
-44.094512 -58.1306410980917 -52.7006857415537
-43.6614409 -58.1162306413422 -52.6469051848041
-43.1102595 -57.951027700845 -52.4606038713051
-42.519708 -57.7032232900992 -52.1811519010565
-41.9291565 -57.4698293361029 -51.9554804875574
-41.3779751 -57.2705308888562 -51.7494941240583
-40.9842741 -57.2902159388562 -51.7153986173088
-40.6693133 -57.4265979658543 -51.7941388173088
-40.4724628 -57.6940874266001 -52.0394952808079
-40.4724628 -58.3169424115908 -52.5354828010565
-41.1417545 -59.8248672490675 -53.8606903685518
-41.338605 -60.7296221515535 -54.655814909049
-41.2598648 -61.216095109546 -55.0730622292976
-41.2204947 -61.8048545877872 -55.5493646995462
-56.2598729 -55.9917600363702 -51.6021842118023
-55.8661719 -56.0940465566188 -51.6612393618023
-55.511841 -56.2304285836169 -51.7399795618023
-55.2362503 -56.4350016241141 -51.8580898618023
-54.8425493 -56.5372881443627 -51.9171450118023
-54.4488483 -56.6395746646113 -51.9762001618023
-54.0945174 -56.7759566916094 -52.0549403618023
-53.6220762 -56.7956417416094 -52.0208448550527
-53.2283752 -56.897928261858 -52.0799000050527
-52.8740443 -57.0198998321066 -52.1048596483032
-52.4803433 -57.1221863523552 -52.1639147983032
-52.1260124 -57.2244728726038 -52.2229699483032
-51.7323114 -57.3267593928524 -52.2820250983032
-51.3779805 -57.429045913101 -52.3410802483032
-51.0236496 -57.5654279400992 -52.4198204483032
-50.6693187 -57.6873995103478 -52.4447800915537
-50.2362476 -57.7555905238469 -52.4841501915537
-49.9212868 -57.891972550845 -52.5628903915537
-49.4488456 -57.911657600845 -52.5287948848041
-49.1338848 -58.0480396278431 -52.6075350848041
-48.7795539 -58.1503261480917 -52.6665902348041
-48.3464828 -58.1844216548412 -52.6862752848041
-47.9921519 -58.3063932250899 -52.7112349280546
-47.5984509 -58.3404887318394 -52.7309199780546
-47.2047499 -58.4086797453385 -52.7702900780546
-46.850419 -58.5306513155871 -52.7952497213051
-46.4173479 -58.5306513155871 -52.7952497213051
-46.0236469 -58.6185273790861 -52.8005243145555
-45.5905758 -58.6185273790861 -52.8005243145555
-45.2362449 -58.7064034425852 -52.805798907806
-44.8031738 -58.7064034425852 -52.805798907806
-44.4094728 -58.7260884925852 -52.7717034010565
-43.9764017 -58.7457735425852 -52.7376078943069
-43.5433306 -58.7457735425852 -52.7376078943069
-43.0708894 -58.6828571223366 -52.6103617308079
-42.4409678 -58.3668616980917 -52.2915396605593
-41.6929359 -57.9000737900992 -51.8401968335611
-41.1417545 -57.734870849602 -51.6538955200621
-40.7480535 -57.7007753428524 -51.6342104700621
-40.4724628 -57.9053483833496 -51.7523207700621
-40.2362422 -58.1584273873459 -51.9438966768116
-40.4330927 -59.0146763263329 -52.6655556105593
-40.944904 -60.4059041868114 -53.8779274713051
-40.944904 -61.0090741218021 -54.4080104983032
-56.8504244 -56.2659374133683 -51.4422558645555
-56.4567234 -56.4023194403664 -51.5209960645555
-56.1023925 -56.5387014673646 -51.5997362645555
-55.8661719 -56.7917804713608 -51.7913121713051
-55.4331008 -56.8796565348599 -51.7965867645555
-55.0787699 -57.016038561858 -51.8753269645555
-54.6850689 -57.1183250821066 -51.9343821145555
-54.2913679 -57.2062011456057 -51.939656707806
-53.8976669 -57.3084876658543 -51.998711857806
-53.5039659 -57.4107741861029 -52.057767007806
-53.1102649 -57.498650249602 -52.0630416010565
-52.7953041 -57.6494427333496 -52.195562357806
-52.362233 -57.7032232900992 -52.1811519010565
-52.0079021 -57.8396053170973 -52.2598921010565
-51.6142011 -57.9418918373459 -52.3189472510565
-51.2598702 -58.078273864344 -52.3976874510565
-50.8661692 -58.1661499278431 -52.4029620443069
-50.5512084 -58.2828469048412 -52.5157977510565
-50.1575074 -58.4048184750899 -52.5407573943069
-49.8031765 -58.5071049953385 -52.5998125443069
-49.4094755 -58.6093915155871 -52.6588676943069
-49.0157745 -58.6631720723366 -52.6444572375574
-48.6614436 -58.7798690493347 -52.7572929443069
-48.2677426 -58.8336496060843 -52.7428824875574
-47.8740416 -58.9018406195833 -52.7822525875574
-47.4803406 -58.9897166830824 -52.7875271808079
-47.1260097 -59.092003203331 -52.8465823308079
-46.6929386 -59.1260987100805 -52.8662673808079
-46.3386077 -59.2139747735796 -52.8715419740583
-45.9055366 -59.2139747735796 -52.8715419740583
-45.5118356 -59.3018508370786 -52.8768165673088
-45.0393944 -59.2533448735796 -52.8033509605593
-44.6850635 -59.3215358870787 -52.8427210605593
-44.2913625 -59.3753164438282 -52.8283106038097
-43.8976615 -59.4094119505777 -52.8479956538097
-43.4252203 -59.3609059870787 -52.7745300470602
-42.8346688 -59.1131015763329 -52.4950780768116
-42.2047472 -58.8456121155871 -52.2497216133125
-41.5748256 -58.4955211845926 -51.9112144930639
-40.8661638 -58.1113347468487 -51.5530223228153
-40.5118329 -58.1651153035982 -51.5386118660658
-40.1968721 -58.3014973305964 -51.6173520660658
-40.0000216 -58.5689867913422 -51.8627085295649
-40.0000216 -59.1918417763329 -52.3586960498135
-57.0472749 -56.7105923241141 -51.3807527673088
-56.8110543 -56.9636713281104 -51.5723286740583
-56.4173533 -57.085642898359 -51.5972883173088
-56.1811327 -57.3387219023552 -51.7888642240583
-55.7480616 -57.4069129158543 -51.8282343240583
-55.3937307 -57.5432949428524 -51.9069745240583
-55.0000297 -57.665266513101 -51.9319341673088
-54.5669586 -57.7334575266001 -51.9713042673088
-54.2126277 -57.8357440468487 -52.0303594173088
-53.8582968 -57.9721260738469 -52.1090996173088
-53.4252257 -58.0600021373459 -52.1143742105593
-53.0708948 -58.1963841643441 -52.1931144105593
-52.6378237 -58.2501647210936 -52.1787039538097
-52.3228629 -58.4009572048412 -52.3112247105593
-51.8897918 -58.4547377615908 -52.2968142538097
-51.4960908 -58.5570242818394 -52.3558694038097
-51.1417599 -58.6934063088375 -52.4346096038097
-50.787429 -58.7956928290861 -52.4936647538097
-50.4330981 -58.9320748560843 -52.5724049538097
-50.0787672 -59.0343613763329 -52.6314601038097
-49.6850662 -59.1563329465815 -52.6564197470602
-49.3307353 -59.2586194668301 -52.7154748970602
-48.9764044 -59.3609059870787 -52.7745300470602
-48.5433333 -59.3950014938282 -52.7942150970602
-48.1890024 -59.5169730640768 -52.8191747403107
-47.7559313 -59.5169730640768 -52.8191747403107
-47.3622303 -59.6048491275759 -52.8244493335611
-46.9291592 -59.6389446343254 -52.8441343835611
-46.5748283 -59.741231154574 -52.9031895335611
-46.1811273 -59.7950117113235 -52.8887790768116
-45.7874263 -59.8291072180731 -52.9084641268116
-45.3543552 -59.8487922680731 -52.8743686200621
-44.9606542 -59.9169832815721 -52.9137387200621
-44.5669532 -59.9366683315721 -52.8796432133125
-44.1338821 -59.9707638383217 -52.8993282633125
-43.700811 -59.9563533815721 -52.845547706563
-43.2677399 -59.9078474180731 -52.7720820998135
-42.6771884 -59.6941385140768 -52.5123151795649
-41.9685266 -59.3099520763329 -52.1541230093163
-41.1023844 -58.6582761778431 -51.5505743755686
-40.551203 -58.4589777305964 -51.3445880120695
-40.1968721 -58.4930732373459 -51.3642730620695
-39.8425412 -58.5953597575945 -51.4233282120695
-39.5669505 -58.7658372913422 -51.5217534620695
-57.8346769 -57.1696576916094 -51.3730302268116
-57.4016058 -57.2575337551085 -51.3783048200621
-57.0079048 -57.3939157821066 -51.4570450200621
-56.6535739 -57.5302978091048 -51.5357852200621
-56.4173533 -57.7833768131011 -51.7273611268116
-56.0236523 -57.9197588400992 -51.8061013268116
-55.6693214 -58.0561408670973 -51.8848415268116
-55.2362503 -58.1099214238469 -51.8704310700621
-54.8819194 -58.2803989575945 -51.9688563200621
-54.4882184 -58.3485899710936 -52.0082264200621
-54.1338875 -58.4849719980917 -52.0869666200621
-53.7401865 -58.6213540250899 -52.1657068200621
-53.3858556 -58.757736052088 -52.2444470200621
-52.9527845 -58.8115166088375 -52.2300365633125
-52.5984536 -58.9478986358357 -52.3087767633125
-52.2047526 -59.0160896493347 -52.3481468633125
-51.8897918 -59.1865671830824 -52.4465721133125
-51.4567207 -59.2744432465815 -52.451846706563
-51.1023898 -59.4108252735796 -52.530586906563
-50.7480589 -59.5131117938282 -52.589642056563
-50.3543579 -59.6153983140768 -52.648697206563
-50.0393971 -59.7517803410749 -52.727437406563
-49.606326 -59.7858758478245 -52.747122456563
-49.212625 -59.9078474180731 -52.7720820998135
-48.818924 -59.9419429248226 -52.7917671498135
-48.425223 -60.0442294450712 -52.8508222998135
-48.031522 -60.0980100018207 -52.8364118430639
-47.637821 -60.1662010153198 -52.8757819430639
-47.24412 -60.2343920288189 -52.9151520430639
-46.850419 -60.3222680923179 -52.9204266363144
-46.4173479 -60.3222680923179 -52.9204266363144
-46.063017 -60.410144155817 -52.9257012295649
-45.6299459 -60.410144155817 -52.9257012295649
-45.1968748 -60.4639247125665 -52.9112907728153
-44.8031738 -60.4836097625665 -52.8771952660658
-44.3701027 -60.4836097625665 -52.8771952660658
-43.9370316 -60.5032948125665 -52.8430997593163
-43.5433306 -60.5032948125665 -52.8430997593163
-42.9921492 -60.3721873788189 -52.6764834958172
-42.3622276 -60.056191954574 -52.3576614255686
-41.5354555 -59.4871175263329 -51.8472634485705
-40.7086834 -58.8695371345926 -51.2633998648228
-40.1968721 -58.7043341940955 -51.0770985513237
-39.8031711 -58.738429700845 -51.0967836013237
-39.4488402 -58.7725252075945 -51.1164686513237
-58.0708975 -57.6339976523552 -51.2774316228153
-57.5984563 -57.6680931591048 -51.2971166728153
-57.2834955 -57.872666199602 -51.4152269728153
-56.9291646 -58.0431437333496 -51.5136522228153
-56.6142038 -58.2477167738469 -51.6317625228153
-56.2598729 -58.384098800845 -51.7105027228153
-55.9449121 -58.5545763345926 -51.8089279728153
-55.511841 -58.6227673480917 -51.8482980728153
-55.11814 -58.7250538683403 -51.9073532228153
-54.7638091 -58.8614358953385 -51.9860934228153
-54.3701081 -58.9978179223366 -52.0648336228153
-54.0551473 -59.1682954560843 -52.1632588728153
-53.7008164 -59.3046774830824 -52.2419990728153
-53.2677453 -59.3584580398319 -52.2275886160658
-52.9134144 -59.4948400668301 -52.3063288160658
-52.4803433 -59.5630310803291 -52.3456989160658
-52.1260124 -59.6994131073273 -52.4244391160658
-51.7716815 -59.8357951343254 -52.5031793160658
-51.4173506 -59.9721771613235 -52.5819195160658
-51.0630197 -60.1085591883217 -52.6606597160658
-50.6693187 -60.1964352518207 -52.6659343093163
-50.2756177 -60.2987217720693 -52.7249894593163
-49.8819167 -60.3328172788189 -52.7446745093163
-49.4882157 -60.4351037990675 -52.8037296593163
-49.0945147 -60.5229798625665 -52.8090042525667
-48.6614436 -60.5570753693161 -52.8286893025667
-48.3071127 -60.6593618895647 -52.8877444525667
-47.9134117 -60.7131424463142 -52.8733339958172
-47.5197107 -60.7813334598133 -52.9127040958172
-47.0866396 -60.8351140165628 -52.8982936390677
-46.6929386 -60.9033050300619 -52.9376637390677
-46.2992376 -60.9570855868114 -52.9232532823181
-45.8661665 -60.9570855868114 -52.9232532823181
-45.4330954 -60.9767706368114 -52.8891577755686
-45.0000243 -60.9767706368114 -52.8891577755686
-44.6063233 -60.9964556868114 -52.8550622688191
-44.1338821 -60.9820452300619 -52.8012817120695
-43.700811 -60.9676347733123 -52.74750115532
-43.2677399 -60.9532243165628 -52.6937205985705
-42.7165585 -60.7539258693161 -52.4877342350714
-41.9685266 -60.2674529113235 -52.0704869148228
-40.9842741 -59.4990800358357 -51.3541025743256
-40.2362422 -58.9981966210936 -50.8830746973275
-39.8031711 -58.9300056075945 -50.8437045973275
-39.4488402 -58.983786164344 -50.8292941405779
-39.0551392 -59.0178816710936 -50.8489791905779
-58.7401892 -58.0445570563515 -51.1962434755686
-58.267748 -58.0445570563515 -51.1962434755686
-57.874047 -58.1665286266001 -51.2212031188191
-57.5590862 -58.3514166170973 -51.3734089255686
-57.1260151 -58.4733881873459 -51.3983685688191
-56.8504244 -58.6923716845926 -51.5702594255686
-56.5354636 -58.8628492183403 -51.6686846755686
-56.1417626 -58.9992312453384 -51.7474248755686
-55.7086915 -59.0871073088375 -51.7526994688191
-55.3543606 -59.2234893358357 -51.8314396688191
-55.0000297 -59.3598713628338 -51.9101798688191
-54.6456988 -59.5303488965815 -52.0086051188191
-54.2913679 -59.6667309235796 -52.0873453188191
-53.937037 -59.8031129505777 -52.1660855188191
-53.5827061 -59.9394949775759 -52.2448257188191
-53.1890051 -60.0417814978245 -52.3038808688191
-52.7953041 -60.1440680180731 -52.3629360188191
-52.4409732 -60.2804500450712 -52.4416762188191
-52.0866423 -60.4168320720693 -52.5204164188191
-51.7323114 -60.5532140990675 -52.5991566188191
-51.3779805 -60.6895961260656 -52.6778968188191
-50.9842795 -60.7918826463142 -52.7369519688191
-50.6299486 -60.9282646733123 -52.8156921688191
-50.1968775 -60.9479497233123 -52.7815966620695
-49.8031765 -61.0161407368114 -52.8209667620695
-49.3701054 -61.0699212935609 -52.80655630532
-48.9764044 -61.13811230706 -52.84592640532
-48.5827034 -61.2063033205591 -52.88529650532
-48.1890024 -61.3085898408077 -52.94435165532
-47.7953014 -61.3623703975572 -52.9299411985705
-47.4016004 -61.4305614110563 -52.9693112985705
-46.9685293 -61.4502464610563 -52.9352157918209
-46.5354582 -61.4699315110563 -52.9011202850714
-46.1023871 -61.5040270178058 -52.9208053350714
-45.669316 -61.5237120678058 -52.8867098283219
-45.2362449 -61.4896165610563 -52.8670247783219
-44.8031738 -61.4752061043068 -52.8132442215723
-44.3307326 -61.4267001408077 -52.7397786148228
-43.8976615 -61.4463851908077 -52.7056831080733
-43.4252203 -61.3978792273086 -52.6322175013237
-42.9527791 -61.31527775706 -52.5390668445742
-42.3228575 -60.9992823328151 -52.2202447743256
-41.3779751 -60.2794154208263 -51.5773260405779
-40.3543525 -59.3405650115908 -50.7625164500807
-39.8425412 -59.2094575778431 -50.5959001865817
-39.4488402 -59.1753620710936 -50.5762151365817
-39.0945093 -59.2435530845926 -50.6155852365817
-58.9370397 -58.4210209535982 -51.0953702783219
-58.5433387 -58.5770880305964 -51.1400149715723
-58.0708975 -58.6111835373459 -51.1597000215723
-57.7165666 -58.7475655643441 -51.2384402215723
-57.4016058 -58.9521386048412 -51.3565505215723
-57.086645 -59.1567116453385 -51.4746608215723
-56.7323141 -59.3271891790861 -51.5730860715723
-56.3779832 -59.4635712060843 -51.6518262715723
-56.0630224 -59.6484591965815 -51.8040320783219
-55.6693214 -59.7704307668301 -51.8289917215723
-55.2756204 -59.8727172870787 -51.8880468715723
-54.9212895 -60.0090993140768 -51.9667870715723
-54.5669586 -60.1795768478245 -52.0652123215723
-54.2126277 -60.3500543815721 -52.1636375715723
-53.8582968 -60.4864364085703 -52.2423777715723
-53.4645958 -60.5887229288189 -52.3014329215723
-53.1102649 -60.725104955817 -52.3801731215723
-52.755934 -60.8614869828151 -52.4589133215723
-52.4409732 -61.0319645165628 -52.5573385715723
-52.0079021 -61.1001555300619 -52.5967086715723
-51.6929413 -61.2706330638095 -52.6951339215723
-51.2598702 -61.3388240773086 -52.7345040215723
-50.9055393 -61.4752061043068 -52.8132442215723
-50.4724682 -61.4948911543068 -52.7791487148228
-50.0393971 -61.5630821678058 -52.8185188148228
-49.6456961 -61.6168627245554 -52.8041083580733
-49.2519951 -61.719149244804 -52.8631635080733
-48.818924 -61.7532447515535 -52.8828485580733
-48.425223 -61.807025308303 -52.8684381013237
-48.031522 -61.8752163218021 -52.9078082013237
-47.5984509 -61.9289968785516 -52.8933977445742
-47.1653798 -61.9289968785516 -52.8933977445742
-46.7323087 -61.9827774353011 -52.8789872878247
-46.2992376 -61.9683669785516 -52.8252067310751
-45.8661665 -61.9683669785516 -52.8252067310751
-45.3937253 -61.9539565218021 -52.7714261743256
-44.9606542 -61.9395460650525 -52.7176456175761
-44.488213 -61.8910401015535 -52.6441800108265
-44.0551419 -61.8766296448039 -52.590399454077
-43.5827007 -61.8084386313049 -52.551029354077
-43.1102595 -61.7455222110563 -52.4237831905779
-42.5984482 -61.5947297273086 -52.2912624338284
-41.6929359 -60.9430538288189 -51.6877138000807
-40.6299432 -59.9360124060843 -50.8335341095835
-39.8819113 -59.4692244980917 -50.3821912825854
-39.4882103 -59.4351289913422 -50.3625062325854
-39.0945093 -59.4889095480917 -50.3480957758359
-58.8189294 -59.0558384480917 -51.0981969243256
-58.3464882 -59.1096190048412 -51.0837864675761
-57.9527872 -59.2119055250899 -51.1428416175761
-57.6378264 -59.4164785655871 -51.2609519175761
-57.2834955 -59.5869560993347 -51.3593771675761
-56.9291646 -59.7377485830824 -51.4918979243256
-56.6142038 -59.9082261168301 -51.5903231743256
-56.2598729 -60.0787036505777 -51.6887484243256
-55.905542 -60.2491811843254 -51.7871736743256
-55.4724709 -60.3370572478245 -51.7924482675761
-55.1968802 -60.5219452383217 -51.9446540743256
-54.7638091 -60.6242317585703 -52.0037092243256
-54.4882184 -60.8288047990675 -52.1218195243256
-54.0945174 -60.9310913193161 -52.1808746743256
-53.7401865 -61.1015688530637 -52.2792999243256
-53.3858556 -61.2379508800619 -52.3580401243256
-53.0315247 -61.37433290706 -52.4367803243256
-52.6378237 -61.5107149340581 -52.5155205243256
-52.2834928 -61.6130014543068 -52.5745756743256
-51.8897918 -61.7493834813049 -52.6533158743256
-51.5354609 -61.8516700015535 -52.7123710243256
-51.1417599 -61.9736415718021 -52.7373306675761
-50.7480589 -62.0759280920507 -52.7963858175761
-50.3149878 -62.1100235988002 -52.8160708675761
-49.9212868 -62.1978996622993 -52.8213454608265
-49.4882157 -62.1978996622993 -52.8213454608265
-49.0551446 -62.2857757257984 -52.826620054077
-48.6614436 -62.3198712325479 -52.846305104077
-48.2283725 -62.3736517892974 -52.8318946473275
-47.7953014 -62.4077472960469 -52.8515796973275
-47.3622303 -62.4274323460469 -52.8174841905779
-46.9291592 -62.4274323460469 -52.8174841905779
-46.4960881 -62.4471173960469 -52.7833886838284
-46.0236469 -62.4327069392974 -52.7296081270789
-45.5905758 -62.4182964825479 -52.6758275703293
-45.1181346 -62.3842009757984 -52.6561425203293
-44.6456934 -62.3015995055498 -52.5629918635798
-44.2126223 -62.2871890488002 -52.5092113068303
-43.7401811 -62.2386830853011 -52.4357457000807
-43.2677399 -62.1901771218021 -52.3622800933312
-42.7559286 -62.0393846380544 -52.2297593365817
-42.0866369 -61.7233892138095 -51.9109372663331
-40.8661638 -60.4829538370786 -50.8310861623368
-39.9212814 -59.7289914183403 -50.1684823785891
-39.4882103 -59.6804854548412 -50.0950167718396
-39.0945093 -59.6804854548412 -50.0950167718396
-38.8189186 -59.8168674818394 -50.1737569718396
-58.6220789 -59.5883694223366 -51.0419684203293
-58.2283779 -59.7247514493347 -51.1207086203293
-57.8346769 -59.8467230195833 -51.1456682635798
-57.480346 -59.997515503331 -51.2781890203293
-57.2441254 -60.2702795573273 -51.4356694203293
-56.8897945 -60.4407570910749 -51.5340946703293
-56.4960935 -60.5771391180731 -51.6128348703293
-56.1417626 -60.7135211450712 -51.6915750703293
-55.7874317 -60.8839986788189 -51.7900003203293
-55.4331008 -61.0544762125665 -51.8884255703293
-55.0393998 -61.1226672260656 -51.9277956703293
-54.724439 -61.3272402665628 -52.0459059703293
-54.330738 -61.4636222935609 -52.1246461703293
-53.9764071 -61.6000043205591 -52.2033863703293
-53.6220762 -61.7704818543068 -52.3018116203293
-53.2677453 -61.9068638813049 -52.3805518203293
-52.9527845 -62.0576563650526 -52.5130725770789
-52.5590835 -62.1940383920507 -52.5918127770789
-52.2047526 -62.3160099622993 -52.6167724203293
-51.8110516 -62.4182964825479 -52.6758275703293
-51.3779805 -62.486487496047 -52.7151976703293
-50.9842795 -62.554678509546 -52.7545677703293
-50.5905785 -62.6569650297946 -52.8136229203293
-50.1575074 -62.7107455865442 -52.7992124635798
-49.7244363 -62.7304306365442 -52.7651169568303
-49.2913652 -62.7645261432937 -52.7848020068303
-48.818924 -62.7842111932937 -52.7507065000807
-48.425223 -62.8183067000432 -52.7703915500807
-47.9921519 -62.8720872567928 -52.7559810933312
-47.5590808 -62.8720872567928 -52.7559810933312
-47.1260097 -62.8917723067928 -52.7218855865816
-46.6929386 -62.9114573567928 -52.6877900798321
-46.2204974 -62.8773618500432 -52.6681050298321
-45.7480562 -62.8629513932937 -52.6143244730826
-45.3149851 -62.8485409365442 -52.5605439163331
-44.8031738 -62.7659394662956 -52.4673932595835
-44.3307326 -62.683337996047 -52.374242602834
-43.8582914 -62.6348320325479 -52.3007769960845
-43.3858502 -62.5863260690488 -52.2273113893349
-42.913409 -62.4696290920507 -52.1144756825854
-42.2441173 -62.1536336678058 -51.7956536123368
-41.2204947 -61.2632892220693 -51.0543096285891
-40.0000216 -60.0228538453385 -49.9744585245928
-39.5275804 -59.9061568683403 -49.8616228178433
-39.1338794 -59.9061568683403 -49.8616228178433
-38.8189186 -60.0084433885889 -49.9206779678433
-58.9370397 -60.135310853331 -51.0395204730826
-58.4645985 -60.154995903331 -51.0054249663331
-58.1102676 -60.3254734370786 -51.1038502163331
-57.7165666 -60.4618554640768 -51.1825904163331
-57.4409759 -60.7005240113235 -51.3203857663331
-57.086645 -60.8710015450712 -51.4188110163331
-56.7323141 -61.0414790788189 -51.5172362663331
-56.4173533 -61.2263670693161 -51.6694420730826
-56.0630224 -61.3627490963142 -51.7481822730826
-55.7086915 -61.5332266300619 -51.8466075230826
-55.3149905 -61.66960865706 -51.9253477230826
-54.9606596 -61.8059906840581 -52.0040879230826
-54.5669586 -61.9423727110563 -52.0828281230826
-54.2519978 -62.112850244804 -52.1812533730826
-53.8582968 -62.2492322718021 -52.2599935730826
-53.543336 -62.4197098055498 -52.3584188230826
-53.1890051 -62.5560918325479 -52.4371590230826
-52.7953041 -62.6583783527965 -52.4962141730826
-52.4016031 -62.7947603797946 -52.5749543730826
-52.0079021 -62.8970469000432 -52.6340095230826
-51.6535712 -62.9993334202918 -52.6930646730826
-51.2205001 -63.0872094837909 -52.6983392663331
-50.787429 -63.1213049905404 -52.7180243163331
-50.393728 -63.2091810540395 -52.7232989095835
-49.9606569 -63.243276560789 -52.7429839595835
-49.4882157 -63.262961610789 -52.708888452834
-49.0551446 -63.262961610789 -52.708888452834
-48.6220735 -63.282646660789 -52.6747929460845
-48.1496323 -63.302331710789 -52.6406974393349
-47.7165612 -63.302331710789 -52.6406974393349
-47.2834901 -63.322016760789 -52.6066019325854
-46.8110489 -63.3076063040395 -52.5528213758359
-46.3779778 -63.3076063040395 -52.5528213758359
-45.9055366 -63.29319584729 -52.4990408190863
-45.4330954 -63.2446898837909 -52.4255752123368
-44.9606542 -63.1620884135423 -52.3324245555873
-44.488213 -63.1135824500432 -52.2589589488377
-43.9764017 -62.9968854730451 -52.1461232420882
-43.5039605 -62.948379509546 -52.0726576353387
-42.9921492 -62.8316825325479 -51.9598219285891
-42.3622276 -62.5300975650526 -51.69478041509
-41.4173452 -61.7420396395647 -51.0124915813424
-40.0393917 -60.2826207655871 -49.7607496205966
-39.5275804 -60.0977327750899 -49.608543813847
-39.0945093 -60.0833223183403 -49.5547632570975
-38.7795485 -60.1515133318394 -49.5941333570975
-58.7008191 -60.6534313708263 -50.9295114123368
-58.3464882 -60.7898133978245 -51.0082516123368
-57.9527872 -60.9261954248226 -51.0869918123368
-57.5984563 -61.0966729585703 -51.1854170623368
-57.2834955 -61.3012459990675 -51.3035273623368
-56.9685347 -61.4861339895647 -51.4557331690863
-56.6535739 -61.6907070300619 -51.5738434690863
-56.3386131 -61.8952800705591 -51.6919537690863
-55.9842822 -62.0657576043068 -51.7903790190863
-55.5905812 -62.2021396313049 -51.8691192190863
-55.2362503 -62.338521658303 -51.9478594190863
-54.8819194 -62.5089991920507 -52.0462846690863
-54.5275885 -62.6453812190488 -52.1250248690863
-54.1732576 -62.8158587527965 -52.2234501190863
-53.7795566 -62.9522407797946 -52.3021903190863
-53.4645958 -63.1030332635423 -52.4347110758358
-53.0708948 -63.2250048337909 -52.4596707190863
-52.6771938 -63.361386860789 -52.5384109190863
-52.2441227 -63.3954823675386 -52.5580959690863
-51.8504217 -63.4977688877872 -52.6171511190863
-51.4567207 -63.6000554080358 -52.6762062690863
-51.0236496 -63.6538359647853 -52.6617958123368
-50.6299486 -63.7220269782844 -52.7011659123368
-50.1575074 -63.7417120282844 -52.6670704055873
-49.7244363 -63.7417120282844 -52.6670704055873
-49.2519951 -63.7273015715348 -52.6132898488377
-48.7795539 -63.7469866215348 -52.5791943420882
-48.3071127 -63.7325761647853 -52.5254137853386
-47.8346715 -63.6984806580358 -52.5057287353386
-47.4016004 -63.7181657080358 -52.4716332285891
-46.9291592 -63.7037552512862 -52.4178526718396
-46.4960881 -63.7037552512862 -52.4178526718396
-46.063017 -63.6893447945367 -52.36407211509
-45.5905758 -63.6408388310376 -52.2906065083405
-45.0787645 -63.558237360789 -52.197455851591
-44.5669532 -63.4756358905404 -52.1043051948414
-44.094512 -63.3930344202918 -52.0111545380919
-43.5827007 -63.2763374432937 -51.8983188313424
-43.0708894 -63.1596404662956 -51.7854831245928
-42.4803379 -62.8921510055498 -51.5401266610938
-41.6141957 -62.24047510706 -50.9365780273461
-40.0787618 -60.5082921790861 -49.5273556666003
-39.4882103 -60.2748982250899 -49.3016842531012
-39.0551392 -60.1922967548412 -49.2085335963517
-38.7008083 -60.2604877683403 -49.2479036963517
-58.7008191 -61.3708503355684 -51.02548871509
-58.1496377 -61.3564398788189 -50.9717081583405
-57.8346769 -61.5610129193161 -51.0898184583405
-57.480346 -61.7314904530637 -51.1882437083405
-57.1653852 -61.9360634935609 -51.3063540083405
-56.8504244 -62.1209514840581 -51.45855981509
-56.4960935 -62.2914290178058 -51.55698506509
-56.1811327 -62.496002058303 -51.67509536509
-55.7874317 -62.6323840853011 -51.75383556509
-55.4331008 -62.7687661122993 -51.83257576509
-55.0787699 -62.939243646047 -51.93100101509
-54.6850689 -63.0756256730451 -52.00974121509
-54.3701081 -63.2461032067928 -52.10816646509
-54.0157772 -63.4165807405404 -52.20659171509
-53.6220762 -63.5529627675386 -52.28533191509
-53.2677453 -63.6893447945367 -52.36407211509
-52.8740443 -63.7916313147853 -52.42312726509
-52.4409732 -63.8598223282844 -52.46249736509
-52.0472722 -63.962108848533 -52.52155251509
-51.6535712 -64.049984912032 -52.5268271083405
-51.2205001 -64.1181759255311 -52.5661972083405
-50.8267991 -64.1863669390302 -52.6055673083405
-50.3543579 -64.2060519890302 -52.571471801591
-49.9212868 -64.2401474957797 -52.591156851591
-49.4488456 -64.2257370390302 -52.5373762948415
-48.9764044 -64.2113265822806 -52.4835957380919
-48.4645931 -64.1628206187816 -52.4101301313424
-48.031522 -64.128725112032 -52.3904450813424
-47.5590808 -64.1143146552825 -52.3366645245928
-47.0866396 -64.099904198533 -52.2828839678433
-46.6141984 -64.0854937417834 -52.2291034110938
-46.1417572 -64.0173027282844 -52.1897333110938
-45.669316 -64.0028922715348 -52.1359527543442
-45.1968748 -63.9202908012862 -52.0428020975947
-44.6850635 -63.8035938242881 -51.9299663908452
-44.1732522 -63.70658189729 -51.7830351773461
-43.6614409 -63.5898849202918 -51.6701994705966
-43.1102595 -63.4390924365442 -51.537678713847
-42.519708 -63.1375074690488 -51.272637200348
-41.5748256 -62.3835450503105 -50.6100334166003
-40.0787618 -60.7195531358357 -49.2401811558545
-39.4488402 -60.4179681683403 -48.9751396423554
-39.0157691 -60.3353666980917 -48.8819889856059
-38.6220681 -60.3353666980917 -48.8819889856059
-58.5433387 -61.9715723233123 -51.0086303110938
-58.0708975 -62.0594483868114 -51.0139049043442
-57.7165666 -62.1958304138095 -51.0926451043442
-57.3622357 -62.3663079475572 -51.1910703543442
-57.0079048 -62.5367854813049 -51.2894956043442
-56.692944 -62.7557689785516 -51.4613864610938
-56.3779832 -62.9262465122993 -51.5598117110938
-56.0236523 -63.096724046047 -51.6582369610938
-55.5905812 -63.1990105662956 -51.7172921110938
-55.2756204 -63.4035836067928 -51.8354024110938
-54.9212895 -63.5740611405404 -51.9338276610938
-54.6063287 -63.7445386742881 -52.0322529110938
-54.2519978 -63.8953311580358 -52.1647736678433
-53.8976669 -64.0658086917834 -52.2631989178433
-53.5039659 -64.168095212032 -52.3222540678433
-53.1102649 -64.2900667822806 -52.3472137110938
-52.6771938 -64.3582577957797 -52.3865838110938
-52.2834928 -64.4605443160283 -52.4456389610938
-51.8897918 -64.5628308362769 -52.5046941110938
-51.4567207 -64.6166113930264 -52.4902836543442
-51.0236496 -64.650706899776 -52.5099687043442
-50.5512084 -64.670391949776 -52.4758731975947
-50.1181373 -64.670391949776 -52.4758731975947
-49.606326 -64.6559814930264 -52.4220926408452
-49.1338848 -64.6074755295274 -52.3486270340956
-48.6614436 -64.5930650727778 -52.2948464773461
-48.1496323 -64.5445591092788 -52.2213808705966
-47.6771911 -64.4960531457797 -52.147915263847
-47.2047499 -64.4619576390302 -52.128230213847
-46.7323087 -64.4475471822806 -52.0744496570975
-46.2598675 -64.3990412187816 -52.000984050348
-45.7874263 -64.3505352552825 -51.9275184435984
-45.275615 -64.2679337850339 -51.8343677868489
-44.7638037 -64.1512368080358 -51.7215320800994
-44.2126223 -64.0004443242881 -51.5890113233498
-43.700811 -63.88374734729 -51.4761756166003
-43.1496296 -63.6844489000432 -51.2701892531012
-42.4803379 -63.3146729190488 -50.9657776396022
-41.4567153 -62.4243284733123 -50.2244336558545
-40.0000216 -60.8285275723366 -48.8939514951087
-39.4094701 -60.5269426048412 -48.6289099816096
-38.976399 -60.4443411345926 -48.5357593248601
-58.4252284 -62.6404853245553 -51.0311420070975
-57.9527872 -62.6601703745553 -50.997046500348
-57.5984563 -62.830647908303 -51.095471750348
-57.2047553 -62.9670299353011 -51.174211950348
-56.8897945 -63.1716029757984 -51.292322250348
-56.5354636 -63.322395459546 -51.4248430070975
-56.1811327 -63.4928729932937 -51.5232682570975
-55.7874317 -63.6148445635423 -51.548227900348
-55.4331008 -63.7997325540395 -51.7004337070975
-55.11814 -64.0043055945367 -51.8185440070975
-54.7638091 -64.1747831282844 -51.9169692570975
-54.4094782 -64.345260662032 -52.0153945070975
-54.0945174 -64.5157381957797 -52.1138197570975
-53.7008164 -64.6521202227778 -52.1925599570975
-53.2677453 -64.7203112362769 -52.2319300570975
-52.8740443 -64.788502249776 -52.2713001570975
-52.4803433 -64.8907887700246 -52.3303553070975
-52.0472722 -64.9786648335236 -52.335629900348
-51.6142011 -65.0127603402732 -52.355314950348
-51.18113 -65.0665408970227 -52.3409044935984
-50.7086888 -65.1006364037722 -52.3605895435984
-50.2756177 -65.1203214537722 -52.3264940368489
-49.7638064 -65.0521304402732 -52.2871239368489
-49.2913652 -65.0377199835236 -52.2333433800994
-48.7795539 -64.9892140200246 -52.1598777733498
-48.3071127 -64.9407080565255 -52.0864121666003
-47.7953014 -64.8922020930264 -52.0129465598508
-47.3228602 -64.8436961295274 -51.9394809531012
-46.8110489 -64.7755051160283 -51.9001108531012
-46.3386077 -64.6929036457797 -51.8069601963517
-45.8267964 -64.6103021755311 -51.7138095396022
-45.3149851 -64.5277007052825 -51.6206588828526
-44.8031738 -64.4110037282844 -51.5078231761031
-44.2519924 -64.2458007877872 -51.321521862604
-43.700811 -64.06091279729 -51.1693160558545
-43.1496296 -63.8957098567928 -50.9830147423554
-42.4803379 -63.5259338757984 -50.6786031288564
-41.6141957 -62.8204774205591 -50.0894649518582
-39.9212814 -60.8693109953385 -48.5083517343629
-39.3307299 -60.6162319913422 -48.3167758276134
-38.8976588 -60.519220064344 -48.1698446141143
-58.267748 -63.2412073122993 -51.0142836031012
-57.7953068 -63.2949878690488 -50.9998731463517
-57.4016058 -63.3972743892974 -51.0589282963517
-57.0472749 -63.5677519230451 -51.1573535463517
-56.692944 -63.7382294567928 -51.2557787963517
-56.3386131 -63.9087069905404 -51.3542040463517
-55.9449121 -64.0450890175386 -51.4329442463517
-55.6299513 -64.2496620580358 -51.5510545463517
-55.2756204 -64.4004545417834 -51.6835753031012
-54.9606596 -64.6050275822806 -51.8016856031012
-54.5669586 -64.7414096092788 -51.8804258031012
-54.2519978 -64.945982649776 -51.9985361031012
-53.8976669 -65.0823646767741 -52.0772763031012
-53.5039659 -65.1846511970227 -52.1363314531012
-53.0708948 -65.2528422105218 -52.1757015531012
-52.6378237 -65.3407182740208 -52.1809761463517
-52.2047526 -65.3748137807704 -52.2006611963517
-51.7716815 -65.4285943375199 -52.1862507396022
-51.2992403 -65.4285943375199 -52.1862507396022
-50.8267991 -65.4482793875199 -52.1521552328526
-50.3543579 -65.4482793875199 -52.1521552328526
-49.8425466 -65.3997734240209 -52.0786896261031
-49.3701054 -65.3853629672713 -52.0249090693536
-48.8976642 -65.3709525105218 -51.971128512604
-48.425223 -65.3027614970227 -51.931758412604
-47.9134117 -65.2201600267741 -51.8386077558545
-47.4016004 -65.171654063275 -51.765142149105
-46.8897891 -65.0890525930265 -51.6719914923554
-46.3779778 -65.0064511227778 -51.5788408356059
-45.9055366 -64.9238496525292 -51.4856901788564
-45.3543552 -64.7730571687816 -51.3531694221068
-44.8031738 -64.6419497350339 -51.1865531586078
-44.2519924 -64.4570617445367 -51.0343473518582
-43.700811 -64.2721737540395 -50.8821415451087
-43.1102595 -64.0387798000432 -50.6564701316096
-42.4015977 -63.6008128055498 -50.3126884181106
-41.4173452 -62.7445638665628 -49.5910294843629
-39.8819113 -61.0267913953384 -48.2355876803666
-39.2913598 -60.7252064278431 -47.9705461668676
-38.8189186 -60.5744139440954 -47.838025410118
-58.0315274 -63.7593278297946 -50.9042745423554
-57.5590862 -63.7790128797946 -50.8701790356059
-57.1653852 -63.9153949067928 -50.9489192356059
-56.8110543 -64.0858724405404 -51.0473444856059
-56.4567234 -64.2563499742881 -51.1457697356059
-56.0630224 -64.3927320012862 -51.2245099356059
-55.7480616 -64.5776199917834 -51.3767157423554
-55.3937307 -64.7480975255311 -51.4751409923554
-55.0787699 -64.9526705660283 -51.5932512923554
-54.724439 -65.123148099776 -51.6916765423554
-54.3701081 -65.2936256335236 -51.7901017923554
-54.0157772 -65.4641031672713 -51.8885270423554
-53.6220762 -65.6004851942695 -51.9672672423554
-53.2283752 -65.6686762077685 -52.0066373423554
-52.755934 -65.7027717145181 -52.0263223923554
-52.362233 -65.7906477780171 -52.0315969856059
-51.8504217 -65.7565522712676 -52.0119119356059
-51.3779805 -65.7762373212676 -51.9778164288564
-50.9055393 -65.7959223712676 -51.9437209221068
-50.4724682 -65.7959223712676 -51.9437209221068
-49.9606569 -65.7474164077685 -51.8702553153573
-49.4882157 -65.733005951019 -51.8164747586078
-49.0157745 -65.6989104442694 -51.7967897086078
-48.4645931 -65.6163089740209 -51.7036390518582
-47.9527818 -65.5337075037722 -51.6104883951087
-47.4803406 -65.4852015402732 -51.5370227883592
-46.9291592 -65.368504563275 -51.4241870816096
-46.4173479 -65.2518075862769 -51.3113513748601
-45.9055366 -65.1692061160283 -51.2182007181106
-45.3543552 -64.9843181255311 -51.065994911361
-44.8031738 -64.8532106917834 -50.899378647862
-44.2519924 -64.6342271945367 -50.7274877911124
-43.6614409 -64.41524369729 -50.5555969343629
-43.0708894 -64.1477542365442 -50.3102404708638
-42.4015977 -63.7779782555498 -50.0058288573648
-41.4173452 -62.9558248233123 -49.3038549736171
-39.763801 -61.0190688548412 -47.7765223128713
-39.2126196 -60.8000853575945 -47.6046314561218
-38.7401784 -60.6833883805964 -47.4917957493722
-57.2441254 -64.2289423837909 -50.7207998748601
-56.8897945 -64.3994199175386 -50.8192251248601
-56.5748337 -64.6039929580358 -50.9373354248601
-56.2205028 -64.7547854417834 -51.0698561816096
-55.8661719 -64.9252629755311 -51.1682814316096
-55.511841 -65.0957405092788 -51.2667066816096
-55.1575101 -65.300313549776 -51.3848169816096
-54.8425493 -65.4707910835236 -51.4832422316096
-54.4882184 -65.6412686172713 -51.5816674816096
-54.1338875 -65.811746151019 -51.6800927316096
-53.7401865 -65.9481281780171 -51.7588329316096
-53.3071154 -66.0163191915162 -51.7982030316096
-52.9134144 -66.0845102050152 -51.8375731316096
-52.4409732 -66.1382907617648 -51.8231626748601
-51.968532 -66.1041952550152 -51.8034776248601
